ply
            format ascii 1.0
            element vertex 6345
            property float x
            property float y
            property float z
            property uchar blue
            property uchar green
            property uchar red
            end_header
-472.755496 119.983748 2086.943194 170 133 118
-456.488535 311.274907 2052.086776 96 68 61
-500.186873 -224.481869 2156.417108 176 133 121
-500.186873 -224.481869 2156.417108 176 133 121
-465.506131 132.058668 2087.918578 151 116 101
-74.357396 76.580222 913.803385 188 139 118
-462.407325 120.242615 2090.796092 119 83 68
-470.551144 -14.889343 2116.298493 191 148 131
-129.809241 -282.726890 1447.186197 191 146 132
-427.343013 499.595654 2028.662024 162 121 108
-465.704402 -31.270005 2121.538345 62 47 56
-488.874655 -336.848011 2173.847041 157 111 92
-488.874655 -336.848011 2173.847041 157 111 92
-490.992253 -351.578927 2181.960648 197 154 136
-420.215522 502.953853 2030.439796 94 65 60
-489.960707 -462.246648 2208.670898 132 89 81
-483.341803 -446.788436 2207.112269 192 147 134
-472.560990 -351.200886 2186.882957 113 73 61
-433.560897 153.376255 2099.945344 181 137 122
16.171201 -86.803907 847.154373 140 91 71
-564.086806 313.527057 2610.268924 50 34 27
-452.358330 -188.854495 2192.527098 53 30 24
-637.931320 612.145940 2843.407486 44 24 18
-54.974077 135.815687 922.878429 83 43 24
-421.082061 133.999194 2116.726214 132 91 83
-400.301774 458.887848 2077.512163 198 156 135
-462.700676 -283.906866 2234.648308 33 21 19
-452.594653 -334.443156 2200.311756 119 92 89
-459.473831 -438.929122 2217.913521 147 98 85
-639.870167 -58.735073 2838.211865 89 57 48
-453.276878 -370.175241 2210.291273 187 143 126
-412.855734 204.967033 2120.236020 117 89 84
-58.574754 -35.427998 946.423023 160 111 103
-419.036810 9.695211 2141.868193 135 96 85
-447.067955 -350.677087 2209.140961 159 138 139
-440.464036 -217.778647 2205.536603 222 176 159
-441.835136 -350.582563 2210.732182 179 145 135
-503.722083 291.645699 2468.955597 50 34 27
-443.029626 -402.759117 2221.843669 107 71 61
-443.029626 -402.759117 2221.843669 107 71 61
-401.576857 140.876311 2123.879154 126 85 71
-436.645279 -353.426495 2212.960036 125 81 68
-435.708305 456.562558 2277.424093 37 26 12
-435.429584 -382.855513 2221.749408 82 62 77
-403.515994 22.134921 2145.846642 132 88 79
-396.430296 126.073480 2129.097482 182 140 124
-435.135553 -395.025767 2224.574452 114 72 63
-422.558359 -226.198377 2208.511945 164 114 89
-65.393126 -177.403055 976.108637 195 151 128
-426.073300 -370.741163 2223.017633 138 96 88
-390.049144 113.116804 2136.510449 116 77 65
-425.485198 -248.426111 2231.780346 141 90 72
-368.348691 465.605588 2091.470253 174 132 118
-446.231034 -567.504310 2284.225573 166 109 89
-494.903154 -599.457271 2395.441723 166 109 89
-354.450901 555.428157 2057.759157 63 43 41
-421.551057 -373.046487 2224.352727 189 147 133
-392.825894 2.645524 2157.356960 133 91 81
-392.825894 2.645524 2157.356960 133 91 81
-416.528915 -329.984617 2220.701278 120 85 74
-383.203915 119.233725 2139.467758 177 136 121
-381.796415 138.352320 2136.469748 171 133 118
-366.014807 377.647797 2115.386666 68 26 15
-366.014807 377.647797 2115.386666 68 26 15
-376.658715 155.611566 2135.669824 182 138 123
-408.086716 -226.733618 2218.890666 225 175 159
-413.620858 -378.791224 2228.703955 190 146 135
-372.564921 115.088634 2145.768544 162 125 113
-381.959744 -111.718991 2123.733302 54 34 29
-358.424486 356.029499 2124.891844 216 147 127
-407.202795 -417.775366 2244.246369 194 150 135
-405.220715 -384.005714 2240.463925 171 132 123
-364.687877 167.488020 2139.529404 98 69 62
-362.217682 295.318844 2140.819995 178 138 120
-362.217682 295.318844 2140.819995 178 138 120
-363.238929 147.156829 2145.158123 102 67 54
-379.797699 -38.079647 2195.294908 209 165 150
-379.797699 -38.079647 2195.294908 209 165 150
-352.026261 365.058695 2125.415305 47 21 16
-396.135489 -350.786868 2236.091408 189 142 128
-351.348133 350.186758 2132.832529 64 29 22
-357.628592 154.906530 2145.314077 179 136 119
-390.869223 -325.515171 2232.412005 112 74 64
-327.993908 591.007691 2079.771274 26 21 21
-339.525865 471.296389 2113.672807 184 140 125
-347.042398 342.588621 2134.846660 189 149 130
-344.195368 383.191356 2128.048576 187 146 126
-49.047772 -162.714892 983.705812 64 46 60
-328.713236 508.805592 2082.926279 104 71 62
-353.821342 125.136998 2155.603863 166 127 114
-388.852072 -365.119886 2244.155815 117 80 68
-333.902572 458.232780 2112.595949 51 26 14
-21.511400 136.458662 922.538852 87 52 34
-368.491824 -38.370001 2204.874152 197 151 138
-323.787946 501.187284 2082.196162 155 122 114
-31.739130 -35.627218 953.283401 204 160 144
-351.053162 133.072917 2155.003670 107 67 57
-354.001258 17.836758 2178.683311 172 136 122
-354.001258 17.836759 2178.683310 172 136 122
-382.208769 -376.000709 2249.686077 87 63 71
-375.052691 -362.393112 2250.989948 92 64 68
-333.469050 232.700198 2071.230531 50 34 27
-335.274353 233.286992 2075.557747 50 34 27
-372.037266 -353.130170 2249.996207 97 81 93
-336.645502 233.716669 2078.837698 50 34 27
-367.442706 -184.230140 2249.779591 64 38 34
-370.875270 -351.010184 2251.895410 91 65 76
-368.211068 -338.919998 2250.518319 106 77 80
-342.106948 14.838355 2185.445257 133 92 84
-201.520738 167.457966 1617.529471 75 49 38
-361.560653 -320.644934 2246.993705 165 130 128
-271.788427 348.893940 2009.919417 58 41 38
-359.021284 -215.567471 2251.924420 161 110 91
-34.459336 -153.859405 983.951921 179 136 119
-361.583732 -363.077339 2256.213154 188 144 128
-323.926511 202.492966 2168.193614 59 50 64
-354.224548 -215.047265 2255.120651 205 161 145
-360.676128 -437.604244 2277.918710 162 111 102
-944.728239 -372.194391 3748.650077 205 161 145
-225.056944 559.884045 1896.031200 40 35 24
-283.748961 325.941519 2149.475851 160 121 108
-271.728991 407.838259 2134.142113 80 55 49
-271.728991 407.838259 2134.142114 80 55 49
-278.506053 366.712095 2153.431879 76 52 49
-273.731781 364.001368 2140.745250 76 52 49
-280.643190 275.801541 2163.410778 82 54 47
-321.297543 -329.677041 2276.816470 157 113 98
-299.623185 -76.542461 2225.827608 179 136 124
-299.623185 -76.542461 2225.827608 179 136 124
-281.048134 188.446882 2180.122142 73 52 47
-239.677057 491.045443 2103.365662 67 48 47
-255.381924 79.502613 2155.049761 32 32 50
-248.876879 117.550542 2158.568580 31 38 44
-175.175576 525.381121 1911.720447 78 74 62
-271.441996 -240.784089 2286.167901 116 79 70
-270.321644 -231.590230 2283.533358 108 79 69
-263.584849 -240.947848 2290.836056 113 87 91
-263.584849 -240.947848 2290.836056 113 87 91
-263.785327 -308.134183 2303.199172 33 29 31
-248.895175 -403.773960 2334.541737 115 124 132
-198.071451 -13.744253 2133.512209 148 115 102
-237.916383 -260.937461 2307.283992 112 110 116
-188.407442 498.846680 2159.292160 59 42 40
-222.546226 -8.928375 2280.299724 148 116 102
-238.539307 -267.992684 2314.125708 79 54 54
-186.443553 103.190314 2109.418549 32 39 45
-239.379886 -325.868604 2319.338984 119 118 126
-213.615225 -33.399727 2281.886082 89 66 63
-231.299914 -471.910719 2357.261822 82 49 63
-219.939986 -348.659605 2340.638650 129 99 93
-223.530141 -471.000735 2354.765005 137 101 120
-224.159678 -457.446825 2361.673457 58 33 49
-217.752984 -383.622214 2341.623162 113 75 102
-218.630391 -391.756624 2344.618521 142 163 173
-217.301654 -452.122063 2359.394451 130 96 114
-200.843966 -244.095262 2316.146130 89 96 105
-208.589413 -346.980435 2344.762597 158 120 106
-212.254512 -475.843029 2358.390632 77 43 60
-205.775348 -357.294066 2353.512856 90 53 46
-208.028329 -462.521415 2358.833963 96 62 86
-151.665483 -32.605536 2115.686036 139 123 128
-151.765892 -48.490719 2119.083222 129 104 93
-139.339203 8.925428 2096.182913 160 126 113
-186.561694 -335.543918 2351.243044 78 64 71
-187.378942 -350.140651 2358.917086 173 139 125
-185.198793 -340.221048 2354.113052 180 149 142
-186.257545 -357.086124 2360.661956 183 143 131
-171.197554 -235.887953 2326.443541 77 67 85
-183.507620 -412.472046 2374.785519 124 87 76
-170.306498 -243.480062 2328.792799 71 77 89
-180.086275 -358.415396 2368.330667 125 84 73
-182.878081 -407.974819 2379.875567 106 65 57
-95.179329 449.368618 1996.129887 69 49 47
-179.295086 -460.435620 2376.623058 206 168 150
-168.082178 -319.400317 2335.066437 71 58 65
-103.561471 35.168317 2025.671553 107 98 124
-166.291335 -349.643124 2367.814439 141 158 165
-83.380747 443.889439 1986.038666 112 107 118
-152.414185 -306.405431 2323.725511 132 120 128
-159.407121 -342.340023 2375.042431 112 78 65
-159.407121 -342.340023 2375.042431 112 78 65
-160.883918 -442.482023 2376.085205 119 90 106
-136.813887 -90.525996 2315.824196 137 119 133
-154.957560 -374.472511 2383.445174 59 56 57
-156.390276 -439.408538 2380.802942 107 81 97
-142.393608 -310.431097 2324.702282 64 51 69
-88.206316 86.208317 2043.136607 31 37 47
-141.149914 -304.812165 2334.804312 124 113 122
-149.420851 -363.479815 2380.085294 116 117 127
-148.800591 -380.721606 2387.471967 72 73 74
-135.843146 -175.516756 2355.311138 202 162 145
-138.373982 -201.008685 2382.608769 197 153 140
-141.246067 -337.884351 2374.334039 59 56 66
-145.614710 -438.756463 2389.770327 123 93 114
-135.559502 -214.474748 2387.485113 95 58 48
-140.765860 -416.924924 2392.348984 116 127 134
-75.810512 108.307531 2049.490323 89 102 110
-126.499823 -219.947505 2391.624433 126 81 73
-47.839046 445.015258 2004.101814 115 104 117
-117.070632 -175.601040 2376.948902 152 112 103
-115.615521 -123.220614 2381.250437 51 30 23
-115.615521 -123.220614 2381.250437 51 30 23
-97.460800 -119.446380 2309.239638 51 30 23
-97.460800 -119.446380 2309.239638 51 30 23
-119.070705 -312.154455 2382.931878 75 58 57
-114.021493 -151.662542 2388.768689 228 177 161
-114.358243 -324.738596 2392.824008 63 63 72
-105.507414 -125.761193 2383.110020 67 28 23
-105.507414 -125.761193 2383.110020 67 28 23
-86.761915 -121.681816 2307.176586 67 28 23
-86.761915 -121.681816 2307.176586 67 28 23
-103.616607 -113.184298 2378.968202 70 31 22
-108.143921 -233.175896 2415.591121 115 68 60
-112.695562 -411.955611 2412.913995 180 150 136
-112.695562 -411.955611 2412.913995 180 150 136
-100.795123 -138.314131 2390.850953 50 31 25
-28.229569 456.233138 1987.012623 101 110 112
-96.918352 -185.442530 2392.056560 165 120 105
-98.373300 -237.537826 2414.130187 122 76 61
-96.009086 -204.514790 2412.124805 190 145 131
-84.782272 -110.989859 2380.237701 216 168 151
-90.603075 -195.297632 2409.510738 216 171 155
-88.309042 -172.962284 2401.739908 118 88 82
-96.071342 -396.546545 2411.649117 145 140 144
-81.335253 -58.833810 2396.466732 103 80 73
-95.026731 -365.000142 2436.665750 102 115 123
-88.469150 -330.702443 2411.076934 119 131 138
-91.294832 -399.264362 2420.453371 113 85 102
-84.115906 -210.718865 2410.979354 203 160 143
-85.356079 -301.873597 2398.920701 38 32 47
-89.404623 -386.993780 2420.721192 81 61 62
-84.983813 -240.263580 2428.604675 89 54 44
-84.983813 -240.263580 2428.604675 89 54 44
-80.177435 -216.977355 2403.819854 114 71 56
-79.792871 -198.920385 2405.620984 200 159 143
-72.263491 -51.889216 2397.455148 214 168 151
-86.586510 -395.356689 2426.565220 125 131 135
-68.362185 -61.818735 2382.996163 206 160 142
-66.162332 -71.700866 2382.084148 45 41 60
-82.119531 -372.225067 2424.730209 51 46 59
-77.931426 -247.157507 2429.191260 162 121 110
-63.419573 -76.995019 2372.181184 73 67 88
-64.914039 -110.379403 2381.272944 210 165 148
-78.517252 -415.522855 2436.932653 147 150 157
-60.012519 -58.923601 2390.527302 94 61 56
-72.186683 -239.370670 2433.261889 99 60 48
-70.936473 -301.327914 2407.428010 55 43 43
-68.271971 -164.559639 2423.535147 160 115 103
-70.523147 -354.352135 2426.003511 66 56 57
-68.197339 -247.464407 2434.933699 172 132 119
-67.113449 -221.481854 2430.565827 115 72 55
-74.617943 -447.165435 2441.389014 40 29 36
-52.478816 -66.396438 2378.008603 152 121 107
-53.883963 -98.360367 2400.415351 225 174 157
-55.269335 -121.935975 2411.805176 227 175 156
-61.623444 -227.913292 2439.670783 88 47 37
-64.987814 -356.422716 2433.569652 109 116 121
-64.987814 -356.422716 2433.569653 109 116 121
-68.025280 -451.993218 2441.257656 107 81 93
-64.211362 -376.942334 2432.703369 113 130 135
-58.617452 -300.904052 2414.889127 54 52 56
-53.019273 -107.148253 2420.320699 222 173 155
-58.453124 -232.952182 2435.846155 180 143 126
-58.199698 -239.110653 2443.687406 100 59 48
-58.199698 -239.110653 2443.687406 100 59 48
-60.484238 -382.159650 2437.393276 128 139 146
-54.775140 -286.094642 2422.597203 111 115 119
-65.448983 -518.157897 2497.881479 208 164 144
-43.669520 -121.769424 2419.340676 214 174 156
-24.301512 -79.115943 2259.807706 68 60 84
-26.563069 -117.644923 2338.780411 214 174 156
-56.546994 -451.067062 2445.639138 118 121 125
-52.744555 -377.011495 2442.954723 60 42 40
-47.445374 -229.619399 2442.858702 119 72 60
-42.340761 -134.777426 2424.534003 48 30 22
-54.674769 -426.711150 2452.975014 37 29 32
-46.031999 -245.534119 2435.025853 51 26 27
-48.744890 -356.289877 2435.363735 130 138 142
-37.087376 -116.230443 2422.901440 191 152 133
-49.415234 -470.256997 2451.015161 189 148 131
-24.890781 3.490249 2385.413109 143 101 89
-29.877948 -113.028961 2425.986888 214 171 152
-37.211866 -237.052520 2468.698501 49 25 25
-36.795289 -390.330482 2447.958390 133 104 73
-20.629471 -211.686492 2456.967995 182 138 125
-20.886172 -258.054140 2444.429131 101 89 105
-21.030374 -443.241382 2475.514052 52 30 45
-0.941154 -72.316580 2416.068934 47 45 66
-12.671322 -361.297518 2465.648349 111 114 117
-7.532109 -451.381107 2483.488805 135 110 124
-1.164190 -338.459357 2464.062554 80 69 75
43.206389 188.829891 2158.972695 28 23 18
3.588056 -306.596600 2474.041155 67 55 59
3.588056 -306.596600 2474.041155 67 55 59
6.855054 -344.820258 2466.320217 135 137 143
7.830841 -331.071917 2465.164280 45 46 58
25.620093 -358.678459 2481.084400 58 51 57
27.597808 -406.666539 2492.707040 187 149 135
35.251714 -242.047008 2474.093047 44 47 55
35.109498 -376.059760 2475.885074 217 170 156
34.653751 -395.986775 2487.066646 145 116 110
36.805576 -344.734189 2488.205970 148 120 116
44.184450 -353.393838 2472.075885 221 175 155
45.996651 -378.596361 2493.727076 91 77 82
37.211103 -642.970348 2574.737081 85 73 89
54.207632 -349.258181 2490.668344 84 55 58
55.111743 -355.155048 2499.107730 93 96 103
55.111743 -355.155048 2499.107730 93 96 103
93.834344 427.334455 2332.151909 63 44 40
48.606100 -675.910989 2590.334553 72 71 85
48.606100 -675.910989 2590.334553 72 71 85
66.203699 -435.406725 2528.925422 82 56 78
113.027717 507.944616 2315.778776 105 78 75
108.859158 392.712333 2361.070400 124 94 81
78.966020 -334.173597 2520.765774 89 57 49
115.712388 480.583521 2342.243630 137 102 92
85.174045 -247.518341 2488.842158 121 122 124
82.021954 -370.645138 2529.980583 140 104 96
120.630778 486.235317 2344.166806 72 48 46
116.168936 3.923058 2163.709816 180 144 129
94.163480 -300.809593 2510.377447 85 76 86
94.163480 -300.809593 2510.377447 85 76 86
151.279646 524.437312 1813.035137 101 74 71
99.596687 -307.348680 2518.531838 132 143 141
112.590498 -50.230685 2459.156408 59 45 47
125.705320 -24.264476 2176.918672 102 76 68
125.899755 -33.209275 2446.907165 168 137 121
106.156594 -633.788542 2617.313320 111 101 114
107.850053 -606.224288 2612.373069 123 81 69
123.950804 -291.714640 2500.732985 67 59 72
128.810709 -241.442991 2528.582639 109 113 117
128.810709 -241.442991 2528.582639 109 113 117
141.028109 3.070136 2469.984873 63 52 66
133.582377 -189.561258 2517.710697 128 120 121
161.748419 475.878410 2371.345750 62 43 41
131.940604 -307.921976 2546.503267 121 82 69
135.717060 -279.498510 2529.130373 94 66 60
146.356620 -120.733161 2508.102118 123 82 73
175.081621 528.587112 2363.603217 115 85 75
158.473617 0.338654 2484.286714 71 55 65
166.500372 -80.047330 2514.624508 174 134 121
183.516860 12.469624 2217.245247 171 135 121
183.860827 -303.812945 2578.566707 122 76 65
189.548732 -310.586057 2583.920736 202 159 140
204.209698 14.164100 2235.831258 169 132 120
192.727118 -305.281804 2581.234216 152 109 96
195.904128 -312.285143 2587.387419 157 111 98
208.621244 20.755241 2233.059052 136 119 141
196.332756 -666.467831 2702.394481 149 95 78
236.537183 466.904499 2173.352849 47 48 60
236.537183 466.904499 2173.352849 47 48 60
218.810309 -286.749985 2597.319444 180 140 130
206.990544 -626.001774 2695.724363 201 158 139
218.591536 -464.307515 2669.580403 174 131 119
226.553973 -328.529511 2612.920772 86 73 87
225.582381 -361.371374 2620.393664 127 86 74
217.967096 -587.805162 2697.643072 161 108 85
230.273207 -240.168294 2629.391906 34 22 19
234.072163 -231.316714 2644.878785 151 102 83
248.035637 92.628055 2234.442971 89 111 114
251.311070 -178.969058 2621.213357 158 106 84
250.202078 -211.367469 2627.763383 180 137 119
250.202078 -211.367469 2627.763383 180 137 119
249.639654 -289.525772 2613.490118 137 98 88
267.578118 467.901512 2115.666696 102 108 115
251.083480 -491.063213 2692.512678 168 118 96
255.368284 -354.142758 2635.711344 203 160 140
273.053616 163.380612 2517.284592 170 128 113
273.721417 174.318889 2511.483804 126 83 76
273.721417 174.318889 2511.483804 126 83 76
255.005599 -461.594114 2685.659271 193 152 133
266.526567 501.457841 1701.086009 214 182 160
254.122812 -624.472376 2724.763244 194 146 133
280.349540 204.054928 2510.930759 133 90 79
281.965643 160.583074 2519.258034 126 84 77
286.832207 186.016062 2517.086810 101 65 55
289.833266 -10.251102 2593.110013 81 57 47
286.456052 -176.677714 2641.781671 160 104 85
286.456052 -176.677714 2641.781671 160 104 85
286.437063 -291.880776 2637.394210 196 152 133
281.802324 -416.267510 2639.231454 181 137 120
288.460620 -308.229757 2644.030669 136 91 79
341.166155 -59.608614 1371.997459 77 44 39
304.755257 2.813919 2599.191705 193 146 133
309.322830 155.457667 2536.146252 135 93 80
302.159016 -215.529845 2682.429050 74 41 33
302.159016 -215.529845 2682.429050 74 41 33
323.590028 493.512435 2484.340043 68 20 19
305.417859 -202.097342 2664.907603 88 48 39
324.385963 479.127284 2489.455263 54 23 18
301.900541 -299.533722 2650.285425 107 83 90
299.431975 -397.203880 2678.640048 152 103 93
299.431975 -397.203880 2678.640048 152 103 93
316.358462 188.036593 2535.913089 101 62 53
316.786692 194.461670 2532.935492 168 132 111
320.039024 254.861079 2553.334643 47 30 23
324.986936 324.010613 2534.034783 81 52 36
331.502460 487.208336 2489.793950 211 143 123
318.261639 -10.271418 2609.942725 76 50 51
318.261639 -10.271418 2609.942725 76 50 51
333.129114 528.074688 2457.160360 157 119 105
312.917843 -300.373114 2653.302946 196 152 134
325.733589 168.033471 2544.168413 115 75 63
317.414789 -255.857528 2657.284193 51 40 54
340.315219 495.351258 2495.219739 121 65 68
337.168460 214.553346 2536.794238 130 88 79
325.225063 -301.314814 2664.317865 109 69 57
319.783856 -650.211170 2754.259235 146 99 89
340.761219 66.317131 2580.983198 142 98 86
353.235266 444.935430 2507.469234 82 59 45
346.842542 214.365143 2538.133462 173 130 114
356.974630 244.162875 2552.794176 40 30 41
357.485032 202.107927 2556.312073 183 138 120
664.902826 -326.474066 2580.967205 138 92 83
357.790667 21.996269 2613.842624 84 66 80
347.458790 99.296542 2353.518302 169 130 116
361.893424 28.267995 2606.093787 93 67 70
361.189242 -270.939899 2705.015949 200 152 131
361.189242 -270.939900 2705.015949 200 152 131
369.543694 46.687949 2598.113512 144 100 88
380.254112 190.012808 2570.063451 98 66 54
362.120159 -657.785800 2783.131250 96 74 86
384.032171 181.883517 2573.213799 120 86 70
397.579117 230.625886 2567.647170 110 76 69
238.701626 14.774741 592.941693 190 144 126
411.136067 462.765996 2597.002402 102 70 65
411.136067 462.765996 2597.002402 102 70 65
381.491254 -682.446744 2804.572838 129 121 124
406.572518 403.985167 2529.652966 104 69 64
410.484830 446.457277 2516.976040 102 70 65
418.443775 269.818930 2571.029184 176 137 118
417.971911 239.130501 2576.310442 183 141 121
432.750460 504.520387 2520.323719 104 68 62
432.516974 443.633026 2532.967346 163 130 112
440.347220 531.400085 2518.539113 159 124 108
439.712487 498.818258 2521.515197 169 130 111
451.248024 196.783381 2613.153214 100 72 64
458.651071 320.987195 2588.569498 106 73 67
458.205333 204.193605 2610.554394 178 138 118
465.627303 375.972266 2572.211499 113 74 66
464.310354 -325.615864 2757.106639 129 98 102
458.895538 -681.948892 2850.246478 113 118 123
480.046505 549.934372 2535.634588 109 73 65
481.311919 488.557480 2549.892429 168 129 111
490.251454 600.495076 2530.696891 158 124 107
482.717827 -644.954040 2855.955980 131 128 130
499.074929 279.575375 2624.287957 114 82 75
487.431438 -612.932759 2844.763912 65 58 75
492.852745 -703.884864 2876.908447 122 79 67
508.418407 356.344347 2602.379139 113 76 67
500.185279 -611.565667 2866.137874 113 109 117
514.220051 453.187586 2586.179793 104 75 69
514.008525 331.410245 2612.228293 179 136 118
513.635941 330.338666 2605.363726 179 136 118
514.832332 360.831973 2603.049883 170 134 116
512.582770 79.084723 2679.858689 139 113 113
523.292007 83.960445 2696.330365 152 138 136
529.132510 535.345282 2569.839619 165 129 109
531.268662 107.456097 2690.938785 151 140 141
535.792777 119.238725 2689.070705 176 135 119
533.535826 86.704659 2681.747510 142 136 133
430.548738 121.370606 1828.169512 100 72 64
547.815346 233.103053 2655.122574 169 131 112
499.643252 584.180635 2130.339138 15 16 10
554.990627 320.334829 2637.136045 170 129 109
556.992077 81.125379 2704.164077 127 84 72
562.006795 499.180265 2600.631172 95 66 61
561.970347 376.277212 2627.590743 177 135 116
322.886553 -154.684812 1078.703895 75 45 53
574.330574 496.539301 2589.011917 100 66 61
568.965842 -697.082961 2922.296658 60 43 54
580.067454 603.429652 2582.061399 161 124 110
580.365536 614.454304 2576.200640 151 121 106
579.123493 168.330922 2690.876572 107 68 58
576.903297 -285.773612 2815.416199 144 99 86
587.808551 283.683821 2669.247704 109 75 69
586.087888 -383.309618 2856.008928 157 111 92
590.157770 -291.986320 2822.711581 147 102 89
596.648066 422.855769 2646.896249 171 131 115
592.407107 -645.343610 2941.444150 145 91 72
596.297325 279.192355 2673.031276 170 131 114
603.005287 56.998126 2738.175587 139 96 84
607.287889 -592.159800 2940.421680 147 96 74
605.785818 30.123016 2739.968037 64 36 47
605.785818 30.123016 2739.968037 64 36 47
608.240865 -221.917551 2830.532613 41 26 21
606.715283 -100.134462 2783.502516 145 118 123
609.288070 371.028622 2654.905129 102 69 59
608.690405 -203.929199 2814.544012 58 33 29
610.492636 452.256783 2635.935356 162 129 108
612.442805 -181.825347 2826.940091 73 44 34
648.608831 -567.471598 3294.017049 157 105 82
613.642925 207.216524 2716.105292 110 78 67
613.877331 -553.604372 2935.751173 148 96 75
611.402664 215.229019 2690.898642 187 139 121
614.213836 -681.195799 2966.366358 200 151 131
616.171830 457.522629 2633.318638 104 69 63
616.505192 181.384733 2710.749640 114 75 66
618.790124 -220.643469 2848.817308 98 67 43
615.750509 -282.705227 2839.156055 100 75 85
615.035089 -344.327330 2845.789778 186 145 128
619.367136 -297.668730 2842.237399 117 98 107
620.257450 -341.058127 2854.137653 111 74 60
626.913976 -225.630657 2851.120603 47 21 23
624.824161 544.963102 2616.026456 96 64 61
628.141820 3.727232 2778.200967 83 51 37
632.525598 -218.819970 2841.792115 48 30 22
629.496494 -277.230797 2840.806842 187 140 123
630.992856 -695.091068 2972.023590 64 44 58
634.167891 -204.258598 2838.879815 73 43 30
635.336841 546.928232 2626.986120 93 65 58
641.400165 19.913056 2805.290459 174 125 115
641.400165 19.913056 2805.290459 174 125 115
637.693018 -94.414817 2816.771960 51 23 20
634.407524 -324.899689 2857.985176 74 54 70
276.358084 20.796014 514.452195 37 25 16
638.942693 -68.000602 2804.951178 53 25 20
641.756015 -130.429904 2834.191287 57 34 25
658.740629 352.593551 2532.515482 28 22 22
645.159013 170.912078 2744.215911 184 142 127
655.948587 7.760959 2836.064153 81 52 37
653.050802 338.574578 2714.381263 56 38 32
649.892504 -334.705465 2874.871032 198 153 130
669.638006 461.117560 2755.427415 24 18 17
659.022884 423.981892 2683.825932 23 18 19
695.976304 436.761130 2929.860006 185 149 130
659.974539 -63.552610 2815.396900 205 157 133
661.002207 446.481835 2681.167319 24 18 17
659.464751 -412.034393 2899.909976 68 40 45
664.066957 -183.520732 2863.976015 84 40 36
667.659756 -217.075516 2888.225564 68 42 30
666.417546 -641.378130 2992.740274 102 57 44
659.372188 -323.933149 2865.229428 92 62 70
358.324986 78.024444 970.165299 175 135 112
666.265666 353.303231 2724.045491 181 137 121
276.003376 -19.078596 513.897004 127 87 73
666.873240 379.970942 2718.281812 123 93 72
664.022284 485.501403 2670.125068 23 17 18
665.473613 -268.479074 2864.497070 123 87 75
665.473613 -268.479074 2864.497070 123 87 75
667.138590 504.979775 2668.129259 22 17 16
670.246963 -160.140977 2856.688602 79 50 35
667.298102 196.553821 2732.180531 130 88 78
671.464953 -692.176538 2987.501034 49 34 47
680.492239 -127.755874 2887.778665 107 80 65
673.290439 228.686095 2735.169562 135 87 73
674.691759 -332.246481 2883.079977 131 92 79
679.335584 -344.911297 2901.833685 165 129 111
680.963948 385.472554 2712.653391 28 22 22
690.906447 24.888541 2838.499384 210 167 150
687.469416 -183.153691 2870.912073 86 43 39
685.798211 438.556153 2699.794771 144 114 107
687.366818 -219.187245 2881.772870 63 36 29
685.077287 232.159463 2741.091559 109 74 66
693.671565 -217.046516 2894.806795 56 35 27
693.914063 -199.645614 2880.626994 68 41 32
694.321920 351.943494 2734.605673 188 144 123
693.913645 219.302322 2748.143950 191 142 123
699.533181 -388.353217 2918.207356 135 93 81
701.665133 437.556620 2713.579045 191 145 127
464.523196 -70.904156 1033.693784 68 42 30
702.694067 -379.284548 2916.840908 194 149 128
708.419337 -234.627209 2892.341255 45 33 44
645.744375 336.164785 2426.769666 28 22 22
705.192955 210.965494 2755.112204 108 68 58
706.838866 -279.208039 2884.265608 184 139 122
713.482799 372.717010 2747.519943 49 36 29
695.722401 386.541687 2619.035414 67 34 35
719.768319 464.578774 2715.295852 61 42 34
722.905418 493.029747 2715.868452 61 40 33
724.986261 508.968973 2715.777886 67 41 35
723.996423 354.121793 2748.400175 178 136 117
722.593093 -391.005105 2923.191843 144 95 90
739.420316 498.790272 2785.875987 74 47 36
726.255194 81.715330 2801.924653 131 92 81
727.346902 208.728590 2771.734961 117 70 63
735.153854 321.909940 2769.513027 68 46 34
728.509044 609.019537 2661.651732 59 42 33
728.509044 609.019537 2661.651732 59 42 33
736.787631 341.435207 2764.076918 71 46 38
606.292062 349.857089 2076.535356 34 16 20
739.658975 518.205103 2717.256239 187 147 120
742.048599 391.619361 2758.816171 61 44 32
578.467250 252.092106 1909.873297 36 16 23
744.697597 414.949890 2757.319797 71 48 36
745.110954 430.707895 2747.993575 74 51 39
725.483637 391.315488 2627.147992 71 48 36
727.335026 408.077200 2628.174949 74 51 39
750.643104 492.407815 2735.595588 78 53 40
756.741959 -679.952839 3032.370064 72 61 72
727.036412 651.994375 2516.005932 44 32 28
762.850123 68.105330 2818.918234 137 90 81
768.288743 201.280297 2808.415140 153 114 100
780.438904 -650.777803 3043.802878 57 48 62
772.915388 212.053063 2789.308738 95 64 51
776.845794 195.802128 2800.149734 101 65 56
779.544187 233.895871 2802.783770 164 119 101
780.409927 245.608594 2792.366175 176 134 115
780.409927 245.608594 2792.366175 176 134 115
793.334152 338.388570 2768.342653 105 67 62
796.523503 382.066365 2760.610590 106 68 64
814.388478 -464.729246 3008.111952 106 75 78
805.587116 252.279941 2804.786138 102 69 62
803.567606 430.792913 2746.732675 167 126 107
812.671851 340.443042 2787.902532 102 69 59
767.540054 643.125677 2464.046582 62 46 41
399.116686 8.652047 957.863413 76 70 85
827.989985 420.629066 2769.425898 157 123 97
776.371782 644.197871 2485.019577 183 140 119
834.939876 476.817941 2756.835319 163 125 104
838.078709 509.342716 2732.372881 90 59 53
841.741672 563.376418 2735.203729 160 125 104
844.270885 617.315211 2724.433549 152 118 98
860.165452 386.796130 2805.171349 96 66 58
860.782886 293.801060 2824.636082 162 124 102
866.047500 441.548077 2788.951135 115 76 64
894.321893 -710.891279 3125.281078 109 77 67
869.218684 383.221205 2782.054266 100 65 60
874.063110 466.921173 2784.883669 154 123 99
882.206972 552.752098 2763.459697 146 113 92
910.096196 -671.465741 3124.120362 66 57 66
907.316790 -609.432999 3085.978411 150 114 97
900.953726 252.288743 2858.883802 161 123 103
900.953726 252.288743 2858.883802 161 123 103
908.349573 339.965103 2839.045622 160 127 103
911.897851 484.345641 2820.168161 163 125 107
912.737814 394.264041 2817.427722 166 125 105
922.123711 573.615421 2785.519553 102 68 56
959.271526 -597.041443 3136.022461 67 60 70
959.271526 -597.041443 3136.022462 67 60 70
1006.797949 521.610772 3063.654244 87 61 55
956.369695 258.429291 2885.369448 42 30 22
970.094854 250.328322 2889.432298 125 97 78
967.740008 398.907460 2844.702435 130 99 62
978.350624 337.911701 2873.719507 127 99 79
976.132286 492.166993 2833.600157 43 29 21
980.654941 243.282279 2890.843003 120 83 65
977.037641 515.936952 2821.941079 42 27 19
979.464955 376.250526 2848.946878 126 96 80
984.624833 424.148044 2852.840074 124 92 73
983.785977 586.688187 2809.407959 49 31 23
986.251547 623.794446 2799.839472 25 16 8
986.251547 623.794446 2799.839472 25 16 8
998.115130 314.138836 2899.788768 166 128 106
992.750748 485.032784 2847.907824 144 110 89
1000.214893 349.048957 2877.304797 96 64 56
993.578216 548.486931 2809.893319 126 95 75
1001.127437 619.378376 2808.473521 109 84 68
988.384388 644.931496 2751.570811 19 13 9
1006.957279 483.125992 2844.471266 157 125 102
1009.401236 600.097223 2820.776344 102 71 59
1009.676868 515.587364 2820.717849 88 59 53
1041.821371 449.872608 2911.685366 159 120 101
997.833338 623.381832 2727.496195 127 99 99
1042.910521 451.362433 2890.166538 108 71 61
1040.609440 357.901783 2898.803329 162 123 103
977.067727 645.100116 2627.585216 126 87 71
970.119388 646.184496 2601.115256 91 53 47
967.805395 656.177663 2589.375584 53 36 33
967.805395 656.177663 2589.375584 53 36 33
1075.168605 -399.675857 3142.580049 71 41 54
1049.909869 473.739651 2882.517982 145 114 91
984.850244 558.988725 2617.899867 84 53 46
1073.871387 318.836963 2951.137364 164 126 107
980.180820 646.933545 2563.077735 145 110 91
1004.594397 657.997842 2607.395544 162 132 107
441.325453 -62.594641 907.927850 98 67 43
545.362894 -138.559726 1000.422777 54 24 26
587.961459 -160.646300 1161.650721 155 122 103
430.091738 15.862589 626.766384 179 138 117
436.168701 42.736732 815.123178 167 123 109
495.272759 -89.770915 1193.126435 45 33 44
495.272759 -89.770915 1193.126435 45 33 44
424.972000 22.557433 590.519351 74 51 39
436.441004 21.708267 669.741623 179 138 117
451.064806 46.917338 791.400903 178 136 117
456.399750 -57.216325 904.643320 68 41 32
443.299566 55.199517 806.001689 123 93 72
450.551093 52.555899 764.630263 71 48 36
445.925933 53.514320 807.924563 27 21 21
446.810702 24.394206 818.280718 112 69 57
446.810702 24.394206 818.280718 112 69 57
452.108629 54.480883 775.177860 71 48 36
451.573855 56.385837 769.506999 74 51 39
448.063144 79.128155 802.511890 33 22 19
449.333845 65.270680 801.900027 191 145 127
450.770823 81.103106 800.341951 184 139 121
384.959325 2.159939 613.873800 115 75 63
453.021682 77.529729 797.993891 67 41 35
458.613654 70.893080 796.030600 184 141 116
364.703957 -25.475304 483.710577 50 31 25
367.222204 -24.816293 473.400048 50 31 25
367.273781 -23.697480 470.822040 218 172 155
-792.060597 -78.171439 1759.310972 166 123 106
-810.510506 -158.284118 1788.009288 134 92 77
-686.737048 345.633287 1621.808171 172 131 119
-841.029617 -290.116465 1836.894612 149 104 89
-841.029617 -290.116465 1836.894612 149 104 89
-734.025371 119.032747 1701.283837 54 39 44
-764.719506 -39.951487 1758.916953 120 78 67
-759.785628 -42.088913 1763.101612 180 134 117
-836.473459 -387.907686 1891.955791 97 65 51
-861.541062 -477.956754 1926.991767 128 86 71
-861.541062 -477.956754 1926.991766 128 86 71
-871.414642 -514.460039 1941.985660 91 58 57
-751.114130 -41.797265 1771.812177 137 102 86
99.286937 97.893909 1199.530885 31 17 15
-743.743490 -44.907750 1767.847723 95 62 53
-857.196471 -483.396780 1931.494085 189 141 125
-768.776322 -110.976672 1810.993388 46 30 20
-710.911568 93.968841 1727.852294 125 82 70
-820.273008 -366.924779 1889.427768 108 81 75
-809.265248 -288.338494 1876.394386 122 72 52
-710.857570 73.714056 1738.583140 105 65 53
-685.506960 209.421813 1703.296811 187 144 124
-733.243097 -36.165692 1778.044169 119 76 68
-733.243097 -36.165692 1778.044169 119 76 68
121.451244 86.810418 1179.630681 49 33 27
122.698396 86.217638 1177.664865 49 33 27
-694.351946 158.137999 1726.968166 59 43 37
-704.318185 73.521129 1743.601781 166 128 113
-703.219424 78.150181 1742.439193 103 67 53
-812.829731 -390.419981 1907.976184 169 131 107
-788.640634 -258.004268 1873.813539 142 93 71
-673.967469 216.382567 1709.346084 128 85 80
-782.283290 -253.690875 1874.123786 202 155 139
-802.980998 -382.195452 1906.451155 151 131 133
-805.124170 -399.891826 1914.130965 102 75 70
-805.124170 -399.891826 1914.130965 102 75 70
-634.143925 351.272902 1661.023379 68 26 8
273.590386 9.616276 975.065392 83 56 43
-725.821968 -68.509190 1800.391086 65 39 40
-725.821968 -68.509190 1800.391086 65 39 40
-811.410457 -435.650145 1930.318300 100 68 53
-691.902757 73.544538 1752.162057 174 132 118
-1611.105562 -351.590926 2775.286821 141 98 81
-710.154688 -18.487303 1787.000537 106 73 67
-806.743731 -439.776641 1933.624879 170 132 116
-797.686636 -413.543850 1926.164192 78 66 75
-709.456446 -39.879387 1798.014601 106 79 75
-682.136306 75.419640 1759.274898 173 130 116
-545.008768 175.200660 1574.805771 187 144 124
-628.146736 320.106547 1687.744650 67 38 32
-714.359303 -127.208467 1828.365961 210 160 139
-772.734057 -362.885776 1914.652453 109 75 65
-806.944119 -506.650327 1969.941121 67 44 46
-785.265999 -427.387198 1940.694815 122 83 69
-704.943899 -63.086614 1816.556220 171 127 114
-782.741576 -418.756495 1938.098096 64 40 55
-764.751924 -312.478686 1914.564637 205 157 139
-618.163909 327.883386 1687.893185 66 38 28
-667.350846 143.456297 1764.587714 61 42 35
-1529.103405 -96.253157 2709.165821 204 159 140
-608.805681 263.291068 1690.049512 76 43 27
-752.505520 -283.016707 1908.152543 127 77 51
-1322.580809 -153.571883 2497.545454 57 28 24
-684.544150 -39.260507 1816.056294 124 87 74
-661.146697 70.052575 1778.669863 122 77 62
-811.031242 -539.601248 2010.697930 222 171 150
-757.321907 -383.041971 1934.686001 182 136 119
-659.428478 75.766619 1778.809376 120 79 63
-681.407447 -35.213570 1815.995610 173 131 116
-750.545523 -361.597895 1928.212885 116 80 69
-656.821218 71.612327 1779.578208 161 126 114
157.400819 69.718151 1122.964820 49 33 27
-744.959955 -361.505426 1930.115226 183 140 128
-797.360958 -537.427865 2011.205581 157 105 79
-673.972375 -34.642275 1821.151777 167 126 111
-551.637648 453.404614 1634.563798 118 102 119
-551.637648 453.404614 1634.563797 118 102 119
-668.936170 -38.027996 1823.215973 120 80 69
-797.324937 -557.927941 2023.965611 156 103 78
-1400.101271 -148.610012 2648.169158 177 139 127
-666.728599 -33.985311 1824.207360 173 134 120
-690.124552 -103.335336 1863.178141 46 27 20
-634.073528 132.067700 1774.143143 61 52 65
-742.471377 -407.988255 1954.043440 143 124 122
-735.153042 -391.979979 1950.106811 71 52 59
419.401899 -73.102744 397.408523 30 18 11
-729.497446 -390.908190 1951.973861 163 129 120
-720.327130 -354.456414 1944.159404 168 128 119
-565.762112 356.439776 1693.886921 168 126 109
-565.762112 356.439775 1693.886921 168 126 109
-553.373289 -117.820043 1735.533435 177 139 127
-625.044571 86.893291 1798.981978 186 142 124
-614.983438 172.694676 1781.809392 158 120 106
-713.004857 -362.357429 1950.182287 172 137 126
-736.384800 -469.877232 1988.897305 133 87 79
-736.384800 -469.877232 1988.897305 133 87 79
-571.350738 315.818634 1716.103013 86 60 54
-586.545174 239.277265 1747.941866 96 67 59
-730.356071 -465.838668 1990.605309 151 105 90
-615.376087 103.078120 1797.358241 141 97 85
-593.139689 200.441615 1763.921151 96 65 57
-601.897081 155.940322 1779.715233 185 141 123
-600.313477 166.390221 1776.850234 187 140 121
-607.291145 126.816299 1792.488002 187 141 124
-595.970120 161.774987 1781.932664 97 66 58
-559.379677 317.536904 1725.947472 87 60 55
-695.630023 -366.320396 1960.645079 115 73 58
-694.924684 -372.588320 1964.149936 196 148 131
-713.228422 -471.944581 2002.427130 149 106 92
-687.535278 -364.131533 1964.596869 123 78 64
-686.750690 -358.902724 1964.630314 190 143 128
-590.002485 130.150722 1803.301973 178 134 120
-597.425119 55.768374 1837.280319 104 69 58
-595.111921 55.460015 1834.641709 104 69 58
-599.797560 22.730746 1846.689441 93 62 50
-579.839002 59.228479 1844.629412 173 130 114
-592.568588 -6.342410 1867.550971 97 65 52
-592.361609 -26.099409 1876.252867 118 84 65
-556.240369 127.317517 1833.338079 95 67 60
-534.138879 206.696004 1810.581214 92 66 61
-523.461611 252.099469 1792.349175 178 135 117
-569.346108 9.560859 1877.116827 51 48 60
-515.579898 279.902478 1780.704221 142 108 98
-562.429545 -24.812702 1894.125309 84 61 62
-572.066462 -103.823672 1922.277910 88 63 66
-584.720087 -200.439814 1956.175991 82 58 63
-584.720087 -200.439814 1956.175991 82 58 63
-590.180065 -254.827443 1972.972442 84 60 65
-590.180065 -254.827443 1972.972442 84 60 65
-531.726802 43.952673 1889.405143 175 132 117
-501.660476 218.115656 1831.378069 179 134 118
-507.806510 168.155302 1851.002659 180 138 123
-542.648048 -68.414320 1926.666112 128 95 84
-489.301167 250.314769 1824.176014 91 65 56
-508.137929 143.221885 1865.222296 106 74 65
-469.063543 216.437566 1862.670739 94 66 61
-485.985832 100.924978 1900.672357 105 73 64
-450.994394 291.891285 1834.277166 178 137 120
-407.425862 467.107782 1759.241018 95 69 63
-430.381353 370.996180 1804.807545 86 60 54
-505.903215 -91.119976 1966.844223 184 140 126
-461.296419 183.092754 1882.950588 178 137 121
-450.755117 209.621822 1869.997097 148 112 101
-534.172858 -378.468092 2054.467999 177 133 120
-483.560318 15.020246 1942.101652 156 141 138
-541.338251 -438.199177 2074.828022 185 141 128
-410.615174 338.243958 1843.136858 85 62 58
-437.138416 181.375007 1908.638745 100 71 65
-392.616982 387.716194 1828.736461 91 61 52
-431.669739 176.812832 1911.383168 175 137 121
-399.594434 338.468097 1849.944496 87 61 56
-415.460248 189.587783 1922.901823 175 132 115
-376.988825 380.307020 1847.575330 86 59 52
-418.633710 143.237529 1940.433663 98 70 64
-390.294652 303.925359 1880.667311 92 64 58
-461.487508 -261.417255 2048.019516 135 91 79
-404.876103 224.023837 1913.259630 89 64 60
-422.129987 86.741619 1964.614952 112 76 66
-415.397009 119.923536 1953.774337 184 141 121
-451.125329 -244.528524 2052.788163 131 86 71
-430.668997 -45.718367 2005.835569 179 136 121
-340.277788 473.971620 1813.552136 161 124 110
-423.506866 -9.645891 1997.902253 126 87 75
-420.686561 -12.650511 2000.409388 183 140 129
-420.686561 -12.650511 2000.409387 183 140 129
-451.508250 -337.323014 2081.283152 154 108 91
-419.092796 -15.579831 2003.884607 185 142 127
-424.689846 -57.426901 2018.547188 149 128 131
-470.332462 -488.993147 2137.204511 175 134 121
-343.971887 426.171044 1844.921748 150 116 108
-462.846023 -462.296504 2123.537619 189 144 130
-462.846023 -462.296504 2123.537619 189 144 130
-459.253721 -460.763197 2117.758385 189 144 130
-448.274144 -440.182135 2121.439415 191 146 129
-435.063119 -349.914692 2092.669279 106 71 60
92.035210 -61.159646 986.604211 180 134 117
-428.992109 -309.152945 2090.161803 73 53 65
-349.572954 387.641545 1896.178954 61 45 40
46.694449 -88.557836 1092.764179 177 139 127
53.722398 -88.472034 1085.284178 177 139 127
-427.085744 -226.456431 2086.117754 202 157 141
-427.540991 -360.633228 2096.054735 179 137 122
-425.807242 -302.759377 2093.025543 46 35 49
-427.165547 -336.537048 2097.757104 179 134 121
-427.165547 -336.537048 2097.757104 179 134 121
-419.927878 -226.276229 2084.622203 166 112 88
-324.683718 422.351388 1863.924725 148 115 104
501.249868 -36.538512 258.525984 33 21 19
99.677737 -81.183037 991.014796 46 30 20
-346.302670 343.910702 1915.216259 29 20 21
-390.193278 -11.638956 2025.635232 129 87 80
-665.896904 869.443906 2680.993424 13 13 11
-371.679777 116.400503 1988.854297 181 136 119
428.560370 -111.465226 465.005004 188 147 123
-317.530437 423.667799 1870.560208 148 115 103
-368.791059 138.518771 1984.402979 115 78 67
-368.791059 138.518771 1984.402980 115 78 67
-370.832878 122.340677 1991.986145 131 90 79
-928.874799 -180.587283 3182.649382 56 29 27
-398.035761 -130.541248 2069.594953 61 32 28
-410.712952 -344.641439 2108.109100 92 66 76
461.143762 -95.285103 552.082206 65 40 37
-567.487704 265.817959 2483.547972 77 48 42
-405.716007 -224.683309 2097.981963 162 109 89
-364.239747 133.468744 1989.787938 118 79 66
-414.770808 -436.716803 2132.489068 144 103 88
-322.478480 -130.732195 1956.004646 208 167 149
-322.478479 -130.732195 1956.004647 208 167 149
-322.478480 -130.732195 1956.004646 208 167 149
493.838618 -51.863284 284.315861 212 168 150
-404.016962 -350.598238 2113.163494 159 131 131
-322.652101 391.750308 1908.993295 20 16 10
-330.952362 347.557602 1926.821180 41 30 31
-364.351076 82.791791 2008.210086 173 131 117
-402.699220 -328.148677 2115.279662 147 105 93
-406.119521 -396.964083 2126.866423 102 68 60
-362.029945 102.880454 2004.796630 172 135 120
-373.674219 -4.578846 2035.738206 123 82 73
-344.417728 236.256928 1968.487800 69 49 44
-404.758656 -340.531790 2119.300851 119 74 63
-402.501948 -392.940472 2126.595692 147 113 104
-403.474314 -432.146703 2134.357927 185 143 127
-370.661049 1.467769 2038.881627 123 83 71
-317.908817 368.472282 1917.912378 37 23 18
-396.792242 -367.028077 2119.036941 147 122 124
-398.401361 -374.384685 2124.510415 75 57 68
-398.203414 -385.604362 2127.897733 107 69 59
-368.701259 -74.676427 2052.609982 50 30 25
-354.915419 92.972971 2014.641887 173 136 122
-352.317909 115.269604 2009.647775 121 86 74
-391.507820 -373.607501 2125.219783 153 123 121
-283.663665 479.047145 1860.433485 68 50 46
-389.602697 -365.552637 2125.813689 131 92 82
-311.617380 384.300758 1924.888834 190 145 127
-311.617380 384.300758 1924.888834 190 145 127
-312.025078 364.784083 1928.049107 190 146 129
-312.025078 364.784083 1928.049107 190 146 129
-385.492664 -367.669526 2127.765847 191 148 135
-355.777220 15.101695 2042.422274 101 68 62
-383.541534 -375.598221 2129.385980 157 124 118
-379.866931 -327.283107 2120.271627 117 83 71
-385.391776 -393.360989 2136.311867 157 121 110
-382.533029 -388.886589 2135.072127 118 77 67
-366.141579 -62.653123 2081.651212 219 169 152
-340.547613 126.899620 2014.844909 181 137 120
-412.627298 -570.001151 2212.498398 170 113 91
-382.778577 -396.242504 2139.936161 112 75 70
-364.920316 -96.199580 2084.403544 217 169 151
-312.122316 328.762358 1952.773169 53 20 14
-343.474025 80.260702 2030.910807 166 126 113
485.540470 -53.643385 303.804753 210 164 144
-341.881348 93.082968 2027.648522 95 59 53
-374.279033 -374.916326 2133.298513 128 84 74
-306.609735 324.726895 1951.924048 207 142 123
-293.752454 393.284466 1927.438294 39 35 28
-366.417331 -207.541680 2113.102929 162 117 104
483.854624 -54.861545 308.511272 152 107 98
-333.304304 112.842759 2021.356655 172 130 115
-333.304304 112.842759 2021.356655 172 130 115
-373.162643 -388.129174 2140.259134 206 161 144
-344.607110 1.948398 2055.150388 134 92 79
-344.607110 1.948398 2055.150388 134 92 79
-369.485036 -289.883539 2132.510840 29 16 16
-329.227493 138.547602 2018.216238 89 63 56
-371.877554 -408.684736 2148.944542 199 155 137
-301.757769 318.725023 1967.673644 40 20 15
-365.211584 -396.886308 2144.879583 122 83 73
474.464028 -81.675674 373.371919 205 162 146
442.038372 -27.054481 804.761881 71 45 39
461.696324 -89.587552 551.065383 54 38 31
100.039100 62.511826 966.806777 193 147 122
-323.049961 113.545492 2034.867235 162 123 109
-323.049961 113.545492 2034.867235 162 123 109
-299.088370 299.048263 1980.991298 189 146 128
-299.088370 299.048263 1980.991298 189 146 128
-304.654510 255.781908 1995.067468 174 133 118
-367.637893 -427.730381 2173.639948 194 147 132
151.346305 -74.551964 969.043668 204 159 140
-340.023745 -61.306803 2093.970292 46 23 20
-319.434298 107.000698 2040.498247 100 64 53
-328.941614 1.842325 2068.687191 131 87 78
-348.373927 -216.245607 2130.793635 169 115 93
482.517837 -80.463107 368.081294 185 140 122
-96.903501 -87.046209 1571.092412 207 164 148
-345.847594 -212.576510 2133.422441 221 174 155
-325.307189 -1.309563 2073.432084 169 133 119
-325.307189 -1.309563 2073.432084 169 133 119
-287.759474 319.540277 1985.592491 84 55 41
-313.974107 94.163984 2050.475606 138 103 93
-269.937121 395.226614 1946.029055 20 17 11
-271.541468 356.926119 1956.731246 35 24 20
-293.873259 242.650034 2009.359249 60 46 43
-339.317947 -356.449433 2148.511289 85 58 64
-329.874594 12.505438 2109.041594 170 128 116
-335.184533 -345.722413 2148.371873 84 59 74
136.585246 -78.634371 990.908688 46 27 20
-332.806410 -334.588364 2146.732781 93 70 77
-276.022255 301.656516 1998.301837 191 147 130
-332.180502 -424.813458 2170.364889 186 144 128
-325.032681 -282.838536 2158.907022 23 18 14
-243.501661 -123.968691 1986.062527 202 158 141
474.759996 -38.744801 310.717819 38 31 45
-290.053298 -0.231658 2099.166182 172 132 121
-285.248030 4.951506 2103.046331 105 74 72
-285.248030 4.951506 2103.046331 105 74 72
-285.248030 4.951506 2103.046331 105 74 72
-307.124187 -429.745233 2183.853570 152 104 97
-307.609391 -441.646578 2186.765801 149 105 92
-283.980475 -0.731909 2101.533050 111 76 68
-303.237951 -419.232000 2180.079891 139 95 87
-303.395992 -425.440394 2184.545756 198 150 134
-223.470791 400.247390 1964.072387 73 52 50
-278.385875 -31.050329 2114.967088 164 127 115
-243.940136 283.068702 2018.914125 72 50 51
-7.456004 192.093960 1541.973845 158 118 109
-261.455769 166.531127 2065.915670 155 116 104
-249.127909 242.771002 2036.041468 74 50 46
-212.297208 444.655266 1944.547648 144 110 98
-285.481941 -331.432313 2169.021383 153 106 92
-259.360962 69.383099 2098.193023 26 26 40
-278.145412 -291.300693 2174.547785 200 155 137
-215.612904 322.644713 2004.732255 55 40 38
-122.840128 266.733060 1815.869056 55 40 38
-239.026832 112.025765 2075.896498 44 32 31
-232.771412 34.706395 2071.130806 28 27 49
-231.714976 111.362564 2076.290394 63 81 91
-232.356234 -59.986993 2100.093279 40 38 61
-225.155845 92.563066 2078.379074 14 16 20
-219.634885 145.532560 2076.726584 87 78 105
-238.791813 -258.047307 2184.439356 135 143 143
-274.764156 -87.693476 2256.047209 142 110 110
-239.516269 -314.737177 2193.960607 141 145 144
-269.041451 -81.857461 2254.297197 46 39 53
-233.275313 -284.047705 2187.206984 107 114 117
-227.791352 -283.177632 2188.780312 97 108 113
-227.139871 -224.462637 2185.788910 40 33 34
-170.929600 367.330935 2020.263139 45 33 33
-170.929601 367.330935 2020.263139 45 33 33
-170.929601 367.330935 2020.263139 45 33 33
-259.003111 -45.765502 2275.577730 153 123 111
-190.524499 -65.919023 2091.251093 45 36 43
-188.398370 -54.026694 2095.153421 62 51 48
-212.835626 -386.463947 2210.591666 114 125 130
-107.771396 469.405717 1849.083864 99 85 76
-212.009578 -251.694213 2204.685831 68 48 49
-203.263420 -311.312695 2189.659964 57 51 64
-178.488613 -48.622798 2092.267302 153 123 111
-206.052957 -241.095121 2206.870368 120 128 135
-203.102746 -230.122750 2202.120800 135 118 129
-165.712396 -62.334175 2087.405684 59 50 47
-190.052309 -348.140652 2220.545873 116 89 96
-187.844635 -442.673280 2228.954051 51 28 43
-187.844635 -442.673281 2228.954051 51 28 43
-182.764429 -439.891797 2228.735627 46 30 46
-177.831688 -252.396003 2212.003739 63 70 80
-177.298897 -373.163558 2222.560812 67 66 77
-175.403241 -242.677953 2218.660127 153 167 170
-175.959293 -324.077551 2228.298888 55 52 58
-175.273935 -404.219552 2233.040677 124 91 104
-175.686694 -330.193484 2232.951042 158 123 110
-172.870063 -368.942942 2226.115482 200 156 137
-139.950398 52.737485 2064.951380 87 106 113
