ply
            format ascii 1.0
            element vertex 5384
            property float x
            property float y
            property float z
            property uchar blue
            property uchar green
            property uchar red
            end_header
-313.017129 -67.851738 1488.421314 127 107 127
-314.331553 -174.641899 1499.900747 70 54 66
-311.563435 9.508441 1478.125558 127 103 127
-311.067060 -71.126646 1485.008587 70 55 83
-308.332753 2.260641 1476.801310 53 46 64
-309.123287 -144.022352 1491.971273 114 102 124
-307.585779 9.912438 1473.476253 39 29 36
-307.896614 -186.803121 1496.031936 65 46 65
-307.724072 -167.021363 1493.474170 135 110 130
-305.191485 3.851072 1472.441469 127 108 118
-303.688341 -125.821980 1484.881342 68 51 66
-297.932433 -11.392948 1467.598252 66 43 58
-374.482677 205.001477 1380.273890 104 89 132
-298.606996 -191.236411 1485.537403 103 93 119
-295.350397 -35.241036 1468.229509 62 48 61
-347.888036 146.302140 1399.615010 120 102 156
-292.554693 -74.012230 1468.397028 54 41 56
-292.554693 -74.012230 1468.397028 54 41 56
-292.747788 -170.537709 1477.571534 65 55 66
-290.111347 -103.175652 1468.967235 72 49 59
-290.739307 -145.033854 1472.477954 120 105 125
-363.719677 163.479005 1379.598235 29 27 36
-365.507399 253.728949 1366.089052 31 28 38
-361.381111 170.968937 1376.088017 104 87 95
-363.447732 273.450143 1362.180049 45 41 54
-285.077903 -100.720296 1463.145115 68 47 60
-339.561135 141.678506 1391.913971 92 77 133
-285.012216 -176.121280 1469.438567 109 95 122
-356.715722 162.307594 1372.812504 36 31 42
-282.424964 -188.630232 1469.280315 48 38 57
-336.085623 26.609821 1401.019484 17 18 36
-280.259085 -190.755128 1465.567639 109 99 127
-276.563688 -37.222474 1447.475554 74 51 68
-322.274416 115.998634 1395.502154 94 78 112
-322.274416 115.998634 1395.502155 94 78 112
-275.616354 -47.446249 1447.180598 129 112 137
-275.466496 -139.384210 1457.620289 131 110 134
-275.323944 -72.664845 1447.749194 48 40 57
-274.005191 -142.445538 1455.709340 56 45 63
-349.651326 292.403776 1346.075636 96 79 116
-270.818109 -108.763620 1448.523117 57 44 60
-306.278214 63.249382 1399.977530 31 28 66
-268.391045 -192.714927 1455.526778 68 43 56
-340.947818 167.846189 1355.769101 27 25 37
-316.071540 130.942386 1375.326871 126 106 153
-260.440465 -197.419003 1446.867089 79 61 85
-260.604389 -193.554203 1446.271791 126 106 132
-334.281562 166.722101 1348.857453 45 34 52
-333.718905 163.693638 1349.490994 95 81 124
-333.974215 163.935720 1348.932682 98 83 125
-253.636759 -175.128122 1435.704596 67 55 77
-252.795006 -210.758667 1439.147809 89 67 96
-244.297684 -111.519235 1422.968854 50 43 57
-242.799715 -177.001137 1426.854717 87 63 82
-320.754940 172.471529 1334.837484 97 79 131
-269.316492 66.636076 1378.040352 36 29 51
-318.477727 161.769929 1334.483207 103 85 129
-314.568412 158.338415 1332.653921 42 42 57
-267.387035 76.292751 1369.888242 92 77 131
-269.429781 85.992520 1366.952081 23 20 59
-314.436212 180.737991 1327.151295 44 39 62
-266.240231 -16.151899 1376.332518 42 33 73
-255.388889 65.374781 1368.118344 31 24 46
-254.549135 50.884273 1368.581513 48 34 70
-244.635770 -126.041220 1393.265588 23 24 52
-302.068393 170.354931 1315.420521 101 86 134
-300.059871 185.095350 1313.204837 37 31 58
-299.472853 155.653629 1316.130387 45 36 61
-265.421490 -74.636443 1353.828234 93 78 131
-239.173331 -7.796566 1358.443808 28 23 51
-239.863092 41.363219 1350.750509 35 28 62
-235.452248 -1.574114 1353.494306 37 29 54
-286.321860 180.103395 1299.459856 73 55 95
-284.963807 158.481394 1299.563457 97 85 132
-240.356715 52.598617 1332.348771 79 68 118
-238.514076 52.300462 1330.305438 44 35 82
-230.177688 -55.630467 1346.135811 31 25 57
-215.588367 -56.446697 1334.611425 32 25 47
-265.161085 172.416880 1279.083936 68 55 89
-238.438896 -183.166000 1331.896776 94 72 110
-236.377440 -177.195184 1331.110285 88 69 108
-236.377440 -177.195184 1331.110285 88 69 108
-625.283661 117.024646 1092.992420 55 42 71
-207.674308 -54.174626 1325.935130 21 20 39
-203.550659 34.888496 1316.842756 32 24 49
-213.180160 -171.661155 1322.125055 16 14 20
-244.397140 178.116017 1256.650579 53 42 84
-227.100526 -53.080190 1283.972577 92 75 109
-206.625106 51.617694 1282.492893 30 21 47
-203.739092 -14.751467 1285.150787 71 61 112
-200.818812 -7.886689 1284.095318 85 72 122
-222.150706 -130.634575 1286.116990 76 65 106
-225.885777 -194.995527 1290.337889 91 72 118
-202.639687 -21.188059 1281.013814 27 20 47
-449.824295 53.861370 1156.484007 32 25 54
-225.591176 -166.322793 1284.568220 108 88 132
-198.684865 -16.276978 1278.290030 30 28 55
-229.824028 173.191403 1242.434245 74 57 101
-198.366395 -21.793102 1275.588863 107 83 106
-214.215346 -213.783786 1283.372345 86 69 109
-189.605819 44.103168 1266.291383 88 76 129
-188.157323 72.866326 1263.566795 60 46 79
-186.521643 51.756380 1262.026256 93 81 130
-182.656249 81.398318 1256.190348 31 23 52
-219.804040 149.476602 1232.346047 58 46 82
-194.045434 122.469336 1244.271760 109 91 142
-210.203949 -200.222341 1270.722115 46 38 77
-174.918603 42.090711 1260.099344 87 74 126
-188.599314 115.920598 1245.963166 110 91 142
-180.547596 109.880529 1245.155943 38 35 79
-177.185647 77.445173 1249.169669 34 26 56
-177.185647 77.445173 1249.169669 34 26 56
-176.850026 77.484123 1249.207424 34 26 56
-223.672957 186.860946 1214.266403 66 58 82
-208.177546 165.737585 1222.436495 68 53 83
-366.669754 133.377323 1155.486911 118 98 141
-171.448279 -80.592787 1257.933928 80 70 112
-169.626267 -87.646533 1256.726771 22 21 50
-193.668412 -178.485369 1256.105733 29 27 48
-169.521809 -19.960619 1246.396525 137 158 170
-215.725901 189.702341 1203.941689 64 57 77
-215.725901 189.702341 1203.941689 64 57 77
-164.616636 -24.315407 1246.161267 137 151 165
-165.518398 1.875862 1243.046291 89 105 128
-175.835581 77.201723 1225.915796 34 37 54
-161.205657 -155.168331 1255.893291 50 36 66
-162.492658 1.363442 1236.892061 88 114 132
-161.137110 -7.031865 1237.810996 120 147 163
-159.590345 -13.295457 1237.710795 137 164 175
-156.548468 -143.553903 1249.529989 87 72 123
97.756165 198.980025 1314.178621 55 41 76
97.756165 198.980024 1314.178621 55 41 76
-147.891594 -39.945069 1237.256307 38 33 59
-176.168098 63.862320 1213.791785 65 64 74
-149.296447 -128.630313 1239.831355 51 36 72
-176.352622 67.154786 1207.087039 106 132 142
-165.356166 78.003407 1209.779017 70 92 107
-140.472337 28.918520 1222.157764 42 56 83
-145.175233 -31.418268 1225.825463 162 181 191
-405.485706 266.431610 1096.948491 138 115 155
-162.043385 76.094527 1205.524980 56 70 83
-174.145997 52.870139 1201.034222 134 138 143
-173.550333 166.659834 1185.525239 83 61 101
-408.863807 263.351274 1088.424426 140 116 161
-185.517614 186.394901 1175.596168 59 54 69
-171.567836 69.562407 1191.716346 94 121 134
-395.133244 223.332555 1094.115269 47 36 83
-126.309667 -102.812581 1214.818958 29 25 55
-122.439419 -98.044430 1210.454041 77 67 109
-119.613776 -140.790310 1208.223301 43 35 58
-168.649852 181.169786 1157.716827 59 47 57
658.247972 -212.408490 1467.009127 64 54 92
-383.532100 266.335008 1072.027485 97 79 109
-125.452514 -176.554665 1199.690780 31 25 45
-125.452514 -176.554665 1199.690780 31 25 45
687.840406 -14.273989 1445.639396 86 74 131
-107.783484 -7.273025 1186.451075 104 86 130
-145.838104 159.960818 1157.046044 74 54 95
678.972674 -364.743141 1460.202696 78 65 102
-98.280568 25.426648 1172.985321 32 25 54
-98.280568 25.426648 1172.985321 32 25 54
694.911095 96.209717 1409.630698 31 23 51
-126.575953 -185.333528 1184.447774 42 29 51
673.064448 -370.512861 1447.961294 76 65 106
694.100336 -137.333356 1427.872349 30 28 55
691.810409 -147.832839 1422.045907 107 83 106
-116.944556 -167.825678 1180.531180 86 69 116
667.412088 -386.404582 1436.498425 90 76 121
686.824436 -438.995295 1445.609233 43 33 67
540.988455 45.598465 1372.696451 60 46 79
-363.079717 233.733826 1062.545077 69 55 76
-363.079717 233.733826 1062.545077 69 55 76
-363.991235 235.855725 1061.927353 63 45 77
-363.991235 235.855725 1061.927352 63 45 77
-362.064319 223.825372 1061.910426 36 29 54
-86.564533 69.653902 1157.226123 101 88 137
-86.118459 85.683458 1155.330840 97 86 137
677.259168 -433.599844 1429.743910 32 27 61
-361.490671 251.997000 1057.853176 84 62 112
-355.800226 247.310465 1052.784648 79 64 110
-102.158477 -168.323470 1163.851534 108 91 131
-354.621208 247.647238 1050.309450 49 38 76
-98.146687 -158.566077 1159.750758 97 81 122
-358.268083 269.894613 1036.380071 51 39 64
-35.326280 25.823830 1142.820754 28 19 45
-31.168552 -31.001005 1146.771248 42 33 60
-31.168552 -31.001005 1146.771248 42 33 60
-31.110393 62.991291 1137.798237 39 31 60
-32.941950 17.048289 1139.296691 41 32 60
-32.941950 17.048289 1139.296691 41 32 60
-95.866506 152.649729 1108.259668 59 45 80
-28.323902 -23.346415 1142.017584 57 40 74
-24.725411 -43.855572 1142.633105 30 25 60
-21.499288 12.614595 1127.205996 73 55 109
-344.540880 269.299158 1023.638118 60 47 81
-33.882765 26.201939 1119.933684 68 53 105
-17.197399 17.001491 1122.174827 110 92 146
-82.211506 149.161798 1092.377128 107 92 135
-80.336629 152.997767 1091.417339 40 33 54
-32.696293 -116.343789 1124.713352 55 40 65
-325.373835 205.806325 1025.379117 56 42 75
-74.262290 133.440738 1083.838248 58 46 68
4.623624 76.260853 1099.598026 38 28 60
4.479732 57.746031 1097.555538 22 20 58
-316.254950 218.148402 1014.491849 53 41 85
15.696469 -117.234462 1108.787332 134 112 136
-6.789902 -125.946402 1099.859767 113 88 102
-6.789902 -125.946402 1099.859767 113 88 102
-58.528461 159.257485 1060.030889 122 101 150
-310.084920 257.546138 998.446838 103 78 106
-78.908659 176.986152 1044.429720 55 39 42
-42.018949 130.440040 1053.485060 55 42 71
75.715068 -145.305281 1099.283448 139 120 133
76.450715 -168.874086 1099.299928 100 79 100
-36.816180 137.814084 1047.546261 112 93 142
-36.816180 137.814084 1047.546261 112 93 142
80.267351 -254.530592 1105.012199 90 72 96
80.267351 -254.530592 1105.012199 90 72 96
4.929522 96.908313 1044.360113 52 43 94
95.949340 -110.502744 1071.735851 132 108 126
12.574119 91.944163 1038.948481 129 112 158
4.505151 103.599414 1035.707647 138 117 171
25.010401 67.065125 1041.557524 62 44 80
-314.605802 287.862058 968.279348 145 123 115
105.801683 -236.068707 1076.722115 104 77 101
105.801683 -236.068707 1076.722115 104 77 101
-237.817725 319.858552 973.915458 137 98 93
-221.490252 320.505374 973.534313 255 226 211
-7.440566 146.507660 1016.121184 77 60 94
39.378199 12.871853 1035.113447 43 31 61
117.775199 -196.279225 1063.017081 79 61 76
117.109343 -275.344680 1067.417266 152 125 139
125.398762 -122.730161 1046.045478 63 48 60
136.423067 -265.924501 1049.130308 71 58 74
138.766366 -197.577941 1041.701013 96 75 94
137.987658 -162.922957 1037.756779 88 70 86
138.158567 -166.212064 1035.567709 138 124 145
142.132117 -203.252818 1036.401744 89 69 95
142.121755 -156.850410 1031.127699 93 68 92
-252.619561 192.746067 950.747624 62 46 76
-251.287634 238.481671 946.318802 81 57 92
145.110611 49.754175 1004.950729 74 54 74
149.790212 -89.692533 1017.939232 76 59 73
150.225142 -241.815764 1030.678293 77 58 77
153.135883 -275.960694 1033.214063 97 76 91
152.821685 -121.880708 1018.215159 66 54 76
153.691907 -237.491637 1025.946776 136 112 130
161.312025 -243.750192 1021.955075 83 63 82
158.602646 -9.162058 998.565635 88 68 89
162.543951 -285.043384 1023.180717 101 76 96
162.543951 -285.043384 1023.180717 101 76 96
164.109709 -268.820667 1021.670665 82 63 92
158.501889 60.017240 990.056496 147 130 148
165.192242 -202.132397 1013.247122 95 64 81
166.999652 -202.570393 1013.092628 95 64 81
163.968662 -9.009337 992.839347 88 71 96
169.249711 -229.006237 1011.256431 74 53 70
170.643091 -268.806475 1014.278407 84 62 87
170.328349 -158.978516 1004.096312 91 74 87
171.451674 -286.154850 1015.067198 74 51 65
169.038424 -8.864168 987.523558 91 72 98
168.765639 87.719743 973.592636 53 41 59
176.324307 38.327652 975.272062 146 130 152
183.462633 -259.563515 999.342797 91 69 80
186.422947 -359.879926 1008.446175 96 65 81
187.146878 -366.524290 1008.632944 137 114 131
188.486444 -329.249512 1004.035529 69 43 60
188.486444 -329.249512 1004.035529 69 43 60
182.360134 19.326163 970.915646 132 110 133
183.124189 -63.357150 977.922397 86 64 87
180.008926 33.915307 967.840100 141 122 139
189.487911 -372.748413 1006.099112 88 60 76
191.500148 -365.229010 1002.836001 88 63 77
192.037464 -124.762233 976.177824 70 49 73
191.743323 -290.954153 992.488238 138 118 137
195.381643 -200.650504 981.788229 140 124 147
190.139940 44.611561 955.055912 145 125 143
199.314048 -204.307889 976.697737 77 59 74
202.138312 -365.382181 992.544063 95 68 88
201.135121 -191.911690 973.427951 86 67 95
201.733398 -184.246628 972.718387 85 68 96
204.833714 -289.886826 979.611794 101 74 89
206.483206 -286.854196 978.152657 151 124 136
199.974097 156.341583 933.464626 97 80 106
216.643481 -39.923999 940.044642 144 125 142
214.529712 92.063359 925.617012 80 66 91
213.614504 147.269170 920.516623 71 58 80
217.768753 -17.013690 934.560699 78 61 76
235.323777 -248.580289 943.874015 78 53 69
235.198531 -3.485912 920.264597 110 90 109
227.488301 117.784537 908.811206 94 73 98
231.208872 24.123022 911.988275 149 130 147
-348.362483 298.628229 933.940375 158 131 118
-348.362483 298.628229 933.940375 158 131 118
239.270559 116.580587 895.010265 69 59 81
255.042599 -1.787561 897.653864 113 92 115
258.370458 15.067713 892.467999 114 91 113
260.296996 -19.436645 894.923366 116 94 118
257.885009 -122.396241 899.937732 220 182 170
240.508949 -52.956522 896.231080 244 201 185
260.736731 -115.349070 898.442398 199 161 149
267.620276 -100.057843 892.397126 202 163 153
263.569801 -76.066318 888.835272 203 165 153
-56.257606 76.088725 908.947039 226 186 170
-225.462258 -65.661197 883.193411 183 144 137
121.999611 416.801500 815.771250 158 131 118
121.999610 416.801500 815.771250 158 131 118
529.648003 -251.996168 837.822321 176 141 146
-235.273515 -29.252720 850.396814 224 180 167
524.383275 -234.773368 831.949799 117 119 137
524.383275 -234.773368 831.949799 117 119 137
8.413433 -70.730395 801.244714 162 125 116
1208.105302 83.499263 671.668240 200 164 150
-442.700017 -20.057453 1608.002980 123 102 119
-437.965377 204.637270 1583.724912 92 70 82
-437.302333 248.500867 1578.602575 139 115 120
-443.907130 -106.390451 1614.149444 127 108 121
-443.489924 -106.531007 1614.336570 127 108 121
-440.649720 -39.469206 1605.991158 94 69 89
-438.776071 -4.269885 1601.949743 86 67 84
-440.817131 -100.391112 1611.736996 60 38 43
-440.817164 -100.391292 1611.736962 60 38 43
-434.775885 226.882594 1577.305201 78 62 69
-436.072459 118.223665 1588.115975 71 48 55
-436.072459 118.223665 1588.115975 71 48 55
-431.822872 262.101108 1571.711129 120 101 115
-432.091287 132.734667 1586.221062 71 56 68
-432.706400 108.882623 1587.115955 120 99 117
-432.779861 157.603572 1581.308337 140 115 125
-429.926786 212.216835 1573.509024 70 55 62
-434.941141 -63.875322 1601.583822 84 65 74
-427.959618 154.785644 1578.423796 84 64 71
-427.187899 159.557109 1577.898755 67 52 55
-426.661416 182.990142 1571.635664 117 92 96
-428.004932 7.876553 1589.555969 91 73 89
-422.628991 104.816204 1577.957626 73 54 66
-426.673501 -37.062569 1591.596729 134 106 126
-427.144942 -88.684004 1595.889596 125 99 108
-424.139004 169.552384 1568.036894 56 31 25
-426.047949 -63.371062 1592.692287 92 67 81
-421.672360 46.137493 1581.994921 120 97 110
-420.627953 161.751763 1567.602454 49 30 23
-419.306383 217.173993 1561.237825 89 66 72
-422.603895 -54.529322 1589.312500 132 104 122
-419.354881 -17.045780 1584.049289 139 112 122
-415.262448 149.570221 1563.896729 253 184 167
-420.697141 149.272521 1561.969545 253 184 167
-420.697141 149.272521 1561.969545 253 184 167
-417.872424 -130.368344 1592.676013 50 40 52
-414.087722 28.958098 1575.398000 62 53 65
-415.445994 -94.312844 1585.028021 131 99 109
-410.960705 160.754603 1557.458993 55 32 25
-409.469154 220.998358 1551.226761 130 108 120
-409.469154 220.998358 1551.226761 130 108 120
-413.384285 -68.140268 1581.333518 60 42 47
-413.071783 -81.766393 1582.452085 71 53 62
-411.849828 -60.028836 1580.288580 68 49 56
-409.268854 154.583285 1556.708221 59 33 25
-406.952880 253.937239 1545.550169 81 63 75
-411.902403 -90.017901 1581.383932 131 105 119
-406.184654 152.624918 1553.107299 96 62 70
-406.084144 152.629246 1553.141196 96 62 70
-404.147162 139.515930 1554.629360 114 96 106
-406.666873 -116.777804 1578.801863 81 58 70
-401.063721 120.394493 1555.353654 49 38 48
-405.670661 -93.659640 1576.441468 52 39 44
-401.034577 253.064788 1538.620006 58 49 57
-400.665861 60.591202 1560.219350 69 50 60
-396.886080 128.391712 1554.543341 49 43 54
-400.688408 190.870683 1545.053936 55 44 62
-400.067037 0.727129 1562.827078 126 106 119
-398.843795 -20.761771 1564.580922 66 45 56
-395.908733 221.844539 1538.586230 63 47 55
-398.203008 -9.290533 1562.847034 71 51 64
-397.462609 -18.656246 1561.969441 122 97 120
-406.497621 343.614277 1513.938106 33 31 33
-397.450984 -136.262862 1572.269434 121 102 118
-390.713110 105.445062 1546.122664 66 59 81
-389.088392 221.233831 1531.723665 60 46 56
-391.220042 -89.263822 1564.431312 131 113 125
-389.470592 127.292703 1540.464953 51 41 54
-388.361952 55.671700 1547.494547 52 41 51
-387.417965 87.692892 1543.139892 73 60 68
-385.692169 91.740091 1542.383420 51 44 52
-386.390679 28.110998 1547.989312 72 57 78
-387.233354 6.991842 1549.630072 115 97 121
-382.901087 220.900214 1526.832608 56 42 48
-385.169793 87.447131 1540.350156 133 114 136
-382.105726 133.412174 1532.850124 76 58 60
-379.591632 194.095277 1526.131380 55 38 50
-382.975286 -64.137054 1551.475513 53 39 48
-381.930727 -66.876387 1549.872741 131 105 120
-377.974944 54.872808 1538.451452 61 50 65
-380.145401 10.376968 1541.911949 49 41 52
-373.490245 156.296426 1525.103655 128 103 113
-373.537902 130.672274 1526.360992 44 34 42
-373.537902 130.672274 1526.360992 44 34 42
-388.438288 330.624746 1495.862571 40 35 32
-372.966133 99.529747 1529.256820 51 45 52
-372.531374 12.262992 1536.575934 119 95 109
-370.898551 54.526186 1530.822834 64 51 67
-365.540639 253.721477 1511.208007 43 37 43
-366.395782 275.222562 1506.157873 45 37 50
-370.740922 -37.557881 1537.842716 83 60 76
-365.787222 247.472804 1508.496345 50 43 54
-368.438924 -30.352290 1535.509106 64 48 61
-363.105547 202.054346 1506.824004 43 33 45
-361.650202 24.013987 1525.867768 66 54 70
-361.650202 24.013987 1525.867768 66 54 70
-357.579014 251.743390 1502.931001 37 32 39
-361.361787 191.451319 1507.126502 47 36 47
-359.332026 96.141051 1516.846873 39 31 41
-360.740134 68.464662 1518.867769 72 55 72
-362.953429 82.931649 1514.203618 106 88 110
-354.067795 49.168834 1517.566018 35 28 43
-357.113466 -74.444534 1528.846421 52 40 57
-355.351149 -69.818912 1527.390304 47 37 51
-355.197184 -69.800105 1527.428168 47 37 51
-355.197184 -69.800105 1527.428168 47 37 51
-357.652152 -118.751244 1530.751798 135 116 135
-352.402640 54.511682 1513.444499 49 36 42
-352.131230 243.029776 1491.543724 34 28 38
-351.037031 109.550890 1505.720668 51 40 55
-351.761664 8.328937 1515.027479 120 100 121
-352.133643 311.565236 1481.943745 106 92 105
-350.376303 169.997712 1497.446208 52 44 59
-350.345143 71.945325 1507.523939 110 90 106
-345.555690 46.543946 1510.642628 60 46 61
-350.472770 311.393812 1478.490064 105 91 106
-346.579034 49.197686 1507.659107 52 39 56
-345.796941 16.876864 1507.749541 65 54 74
-345.796941 16.876864 1507.749541 65 54 74
-345.655240 -164.133834 1522.400962 135 108 127
-342.148781 -70.639821 1513.050223 54 44 64
-339.563287 3.563620 1506.284132 47 37 50
-339.303660 124.915325 1492.152079 55 40 55
-336.983105 157.810444 1487.410076 107 89 108
-341.103956 -169.039317 1520.222290 54 47 61
-339.235343 -71.378270 1510.284179 60 46 69
-335.394493 186.612409 1483.409958 27 24 29
-332.193928 138.476020 1484.896270 33 26 30
-331.552229 -71.007793 1502.676347 62 48 63
-329.660281 29.867303 1490.265877 133 115 136
-323.230895 64.087081 1482.781125 39 33 48
-321.480469 25.620150 1484.676872 68 53 69
-322.188466 90.643642 1477.135105 41 33 44
-324.777714 -183.111745 1504.992476 133 113 130
-322.361400 2.639999 1486.170534 71 58 79
-321.864860 23.530931 1484.059199 103 85 98
-319.768364 43.875399 1482.007320 111 95 107
-323.555188 -170.840897 1502.739781 58 51 67
-322.489975 -108.389021 1496.328193 62 51 60
-320.947842 0.794754 1485.144994 131 118 136
-320.081915 -62.108304 1489.279475 127 107 128
-318.675443 27.590347 1478.816680 129 111 132
-317.162007 -41.836333 1485.858725 66 53 75
-316.605222 -54.031674 1483.233922 76 57 73
-316.210716 -68.344181 1486.307199 131 112 131
-314.128795 20.501610 1476.981956 41 35 47
-314.363131 -2.709421 1477.531431 129 110 141
-312.298198 -34.519178 1478.337733 135 117 136
-307.827660 -107.758800 1482.071156 60 44 52
-307.996723 -195.054778 1490.887139 71 56 73
-308.433252 -122.798653 1482.667340 118 100 113
-303.021197 -185.798281 1483.473083 128 107 125
-300.458371 -167.938864 1480.954816 139 111 132
-299.276812 -13.022429 1463.370101 90 70 91
-298.199225 -25.942915 1463.967741 86 69 84
-296.335613 -157.900383 1476.627407 111 95 113
-296.199643 -148.388694 1474.667302 58 41 50
-295.958316 -15.094199 1457.425081 126 109 137
-295.958316 -15.094199 1457.425082 126 109 137
-295.764616 -129.477201 1469.417967 87 68 96
-295.764616 -129.477201 1469.417967 87 68 96
-294.232982 -105.928697 1466.580359 62 45 61
-293.605316 -145.499496 1470.457575 128 109 129
-291.925563 -169.249997 1470.810799 129 110 130
-292.323139 -184.486525 1471.307575 127 104 131
-289.601584 -173.194650 1469.523939 54 44 57
-284.964977 -189.105067 1467.344246 46 40 57
-392.129253 206.395768 1383.355259 29 29 64
-283.194982 -142.936062 1458.964288 71 57 83
-279.779883 -172.970988 1460.251936 80 64 90
-347.788528 136.850376 1402.904817 39 37 76
-380.362665 298.371584 1373.608939 40 34 66
-375.283072 201.951504 1385.179228 40 36 73
-389.207697 300.402902 1368.770269 117 97 141
-389.207697 300.402902 1368.770269 117 97 141
-348.144063 139.146644 1400.434539 110 97 149
-277.395230 -107.794061 1451.845425 67 50 67
-276.808857 -142.748291 1453.575911 60 46 67
-277.298024 -73.179038 1446.122690 47 40 61
-274.788103 -43.280237 1442.052137 77 62 77
-272.681725 -208.861242 1455.535036 78 53 67
-271.751468 -192.591074 1453.275858 72 46 59
-271.751468 -192.591074 1453.275857 72 46 59
-369.341189 166.714133 1381.431718 48 38 61
-348.762926 7.728357 1403.776393 104 88 136
-325.875006 118.506311 1397.939667 44 38 77
-270.375795 -190.447842 1448.408977 89 65 90
-372.672932 297.209010 1362.321450 58 52 70
-320.754672 102.319088 1397.820195 117 97 138
-325.839717 115.596908 1393.448630 101 84 115
-362.719332 170.623465 1374.732604 98 83 88
-375.815127 306.814421 1356.036240 82 75 103
-321.880108 113.049335 1394.048568 35 28 52
-321.782282 113.047855 1394.057485 35 28 52
-348.249192 13.858541 1394.957141 97 83 133
-263.108598 -197.802256 1444.892590 77 60 90
-360.258037 156.152112 1372.848188 113 94 135
-344.800999 18.884781 1391.958614 25 22 51
-359.969516 187.133067 1368.793138 86 77 123
-368.493170 219.932633 1362.372615 36 38 51
-359.974710 275.229644 1359.471542 34 29 42
-259.074400 -175.834975 1439.116898 73 57 77
-315.396752 106.507462 1387.798699 81 62 100
-255.075941 -175.793356 1434.187418 70 59 79
-247.385739 -178.935507 1425.357698 138 119 134
-245.367230 -177.450561 1424.920974 94 68 84
-344.907455 164.255935 1357.028892 29 25 41
-344.638197 164.271908 1357.051641 29 25 41
-343.850783 186.730896 1354.784721 42 36 58
-347.943614 295.097012 1339.433541 51 44 58
-320.253624 149.098946 1361.402631 62 56 77
-341.644905 280.457846 1341.050499 24 23 25
-341.644905 280.457846 1341.050499 24 23 25
-338.311347 171.995282 1352.195087 34 29 34
-271.492864 113.301176 1376.665277 37 27 63
-810.422401 37.689676 1259.230921 41 35 73
-338.020635 197.211205 1347.410328 67 61 84
-336.098546 166.426447 1347.401603 51 40 60
-340.888901 294.266856 1332.483190 46 40 59
-232.066015 -185.856638 1410.705816 51 34 54
-232.066015 -185.856638 1410.705816 51 34 54
-226.799810 -197.057595 1410.508492 63 48 64
-223.768880 -238.190469 1407.936555 128 105 133
-257.020429 64.892213 1366.747753 33 25 48
-255.998259 50.331999 1367.246371 41 28 67
-321.624682 163.747771 1336.425648 42 36 52
-322.854459 168.268410 1335.103798 56 44 71
-321.044256 180.761089 1332.845981 43 34 60
-218.320313 -239.480438 1402.707978 131 104 118
-336.009716 294.728956 1316.359828 82 67 103
-322.219775 177.398255 1331.113958 112 92 137
-220.451651 -239.151620 1395.495921 25 22 39
-314.250979 158.746415 1325.425681 63 57 74
-246.602497 53.915255 1351.253222 64 58 110
-285.670222 -161.417848 1361.390662 89 76 132
-308.468815 176.951078 1320.215824 35 28 52
-238.509407 23.600027 1351.462755 42 32 70
-237.889622 109.110791 1343.222049 45 34 71
-239.929204 -6.387013 1352.869973 69 64 112
-239.929204 -6.387012 1352.869986 69 64 112
-273.189440 -172.710991 1360.576089 37 33 88
-273.189440 -172.710991 1360.576089 37 33 88
-236.882493 -1.926686 1352.100927 35 28 51
-235.711570 103.451308 1341.280586 42 33 69
-264.273213 -82.048384 1351.971743 47 42 87
-264.273212 -82.048385 1351.971740 47 42 87
-303.729209 170.155205 1314.031545 107 91 139
-234.798984 10.751523 1346.041133 38 33 78
-301.363073 184.932345 1311.928832 36 30 65
-233.450173 3.489252 1345.676129 47 35 77
-319.281723 199.017195 1305.694702 26 24 39
-300.376141 158.575150 1312.797176 107 90 135
-244.164130 62.562566 1335.472339 25 22 56
-234.077573 36.172795 1340.240949 91 80 136
-326.177684 212.011583 1299.848635 21 22 36
-228.701452 7.260657 1342.451796 42 35 77
-241.403713 57.077323 1331.060997 95 82 130
-241.403713 57.077323 1331.060997 95 82 130
-242.147552 52.193557 1330.887625 76 66 114
-221.558467 -0.421628 1335.708057 55 39 69
-218.117251 101.106324 1324.237238 35 28 54
-284.436258 161.166685 1297.850598 44 38 66
-217.529980 -56.714605 1332.967946 32 23 48
-208.115978 59.487504 1315.236941 24 19 51
-206.881711 -55.002450 1324.940060 22 17 42
-243.738267 -190.657354 1330.373764 90 69 114
-243.738267 -190.657352 1330.373784 90 69 114
-239.372109 -177.361518 1329.157268 95 72 114
-204.224121 34.474542 1315.620340 28 24 51
-228.582549 -178.837751 1319.389813 79 66 107
-265.895330 172.747388 1277.461026 62 49 90
-207.574536 125.022808 1292.836848 29 25 59
-260.311991 150.867786 1273.705782 63 46 78
-225.098803 126.216477 1275.808223 123 105 156
-271.213272 192.966172 1260.697462 77 64 94
-209.519033 87.115422 1280.961606 90 79 134
-253.684454 170.221741 1264.150212 48 36 76
-209.030332 67.978308 1281.273254 92 76 123
-310.455022 109.323604 1281.242210 59 44 98
-207.476098 107.469971 1276.367282 59 44 98
-207.807706 51.447256 1281.176297 29 20 49
-308.246738 106.289378 1280.447667 58 46 92
-214.210846 115.914537 1272.822680 117 98 149
-209.334340 -23.003590 1286.454617 26 22 49
-258.051656 167.548532 1260.049788 119 99 142
-209.265229 -25.186604 1282.514226 99 80 111
-209.035526 -25.224875 1282.559110 99 80 111
-211.957704 -26.773417 1281.875798 97 73 103
-198.986559 25.424970 1276.540982 50 36 72
-199.541580 82.149232 1270.842455 33 23 62
-214.399503 -114.683972 1286.922021 19 15 27
-197.756326 90.955595 1270.000527 55 39 81
-198.221652 74.359413 1271.370603 51 38 86
-198.911157 3.836121 1277.594441 35 27 56
-231.885915 -174.484687 1288.448501 29 24 51
-221.880467 -62.579097 1278.319596 98 84 125
-194.720988 83.310778 1265.817163 94 81 133
-194.720988 83.310778 1265.817164 94 81 133
-222.755450 -147.053714 1282.579571 100 80 127
-196.861609 59.228353 1267.094193 90 77 130
-193.739690 93.229445 1262.344700 96 82 134
-221.746531 -157.698791 1283.041543 95 73 118
-201.963866 -66.756022 1277.405799 98 84 125
-297.888740 86.357132 1268.341795 36 26 66
-190.467926 81.392256 1261.615205 36 26 66
-193.470736 -23.485794 1268.009575 36 27 59
-217.263248 -214.314588 1281.336793 95 76 118
-194.254087 -67.553042 1269.789900 94 79 126
-185.789790 16.015233 1261.186706 31 22 50
-184.045849 -15.398725 1263.367218 38 27 58
-214.486343 -101.258864 1267.045736 36 36 67
-227.958648 154.631924 1241.200830 49 37 74
-217.763641 -175.367866 1271.546242 114 93 138
-179.945492 42.377198 1255.145142 95 81 133
-185.281386 -70.239539 1263.951474 101 84 135
-415.275771 187.930861 1206.909364 58 43 90
-401.144767 281.226975 1199.401482 41 36 64
-180.990150 109.628140 1244.002314 37 34 78
-176.577243 90.820100 1245.609186 24 21 58
-190.609251 118.863633 1240.624974 36 32 79
-200.721688 -214.436561 1269.844790 61 45 77
-182.877264 -90.868167 1260.505004 100 84 132
-206.212565 -174.577014 1265.018706 38 28 47
-176.808619 -78.511732 1259.479207 25 20 56
-187.788462 86.228685 1242.168252 103 89 136
-205.500814 -165.862659 1262.987123 29 25 54
-415.404830 187.855691 1202.995816 47 40 82
-203.486912 -172.868029 1258.962339 81 63 105
-192.910538 -212.484775 1263.003556 106 85 130
-170.297563 -6.933620 1245.257740 39 52 82
-211.838627 163.841800 1222.431045 53 40 76
-175.643320 68.659436 1233.620408 159 169 176
-209.211865 154.905371 1221.619764 77 56 97
-207.677750 167.285538 1219.202808 58 44 80
-175.722657 69.565469 1230.335989 149 160 167
-223.885608 186.774456 1213.127402 71 59 88
-169.320761 66.090735 1226.089230 45 54 74
-155.832312 -107.256651 1241.877809 25 22 52
-167.682709 61.064912 1224.497195 134 155 163
-151.223629 -30.479324 1233.691044 46 41 78
-157.425940 43.461154 1225.905641 75 85 108
-216.918162 186.991174 1204.971811 64 57 71
-177.327296 74.937308 1218.473787 34 39 55
-177.343322 70.667710 1218.458619 95 98 107
-153.254234 -58.095935 1232.137176 122 139 153
-175.770149 74.861561 1214.606301 67 73 89
-151.341026 -58.189351 1228.564340 109 118 133
-146.798872 -110.630492 1232.424913 30 26 56
-146.798872 -110.630492 1232.424913 30 26 56
-171.186682 51.159276 1215.212586 121 135 148
-144.158666 -55.550867 1224.049702 116 132 148
-177.488933 68.661641 1208.213529 53 64 86
-186.681965 171.862429 1197.503513 54 40 80
-141.932292 -110.635318 1227.018005 86 73 116
-147.008537 -67.995063 1221.184851 114 125 138
-178.437574 67.107101 1205.673918 117 141 151
-162.990041 75.864716 1204.220630 56 69 80
-175.667549 54.588863 1203.800911 141 152 158
-140.164714 -67.712450 1216.950638 37 32 55
-158.793168 33.453215 1206.179235 147 151 162
-171.819782 49.096918 1202.740452 66 68 77
-109.944876 -135.921518 1221.911034 107 83 115
-132.898297 -106.544919 1217.275198 89 74 119
-153.725592 -216.806500 1222.466537 111 91 136
-168.722148 49.531788 1194.144853 140 133 140
-168.722148 49.531788 1194.144853 140 133 140
-171.974584 136.076883 1184.078037 125 76 74
-151.541798 -216.328139 1215.897090 111 89 137
-171.905620 58.656874 1189.736730 19 21 34
-122.337916 -115.981450 1207.366012 95 78 123
-126.306109 -177.016978 1198.028291 32 26 45
899.051053 -35.639132 1235.169717 29 20 49
899.051053 -35.639131 1235.169717 29 20 49
504.735551 90.178486 1241.712674 58 46 92
-105.712061 7.513965 1180.770193 42 30 65
-151.936831 158.520507 1164.405625 60 46 73
902.381554 -131.316707 1241.989004 50 38 74
-152.551169 148.314629 1164.692324 72 53 96
-104.075100 -26.150098 1180.967650 98 82 129
897.793812 -68.615795 1229.963449 89 76 128
-107.248140 -36.189070 1179.537942 103 84 113
535.794804 66.124226 1230.943075 55 39 81
894.747562 -139.229837 1228.415866 35 27 56
-120.114476 -219.769257 1189.161992 113 89 116
894.721192 -117.896549 1218.153377 41 32 77
-129.492075 -181.728310 1184.054154 79 67 108
-121.197658 -222.488952 1187.742869 71 51 87
879.986323 -194.855774 1221.232841 112 86 108
-122.398841 -142.208274 1179.934668 85 71 106
-90.327403 38.930949 1162.532597 39 27 59
892.733485 -129.296064 1209.696187 49 37 76
-89.380771 71.581592 1158.915747 33 22 64
-89.380772 71.581591 1158.915745 33 22 64
-121.204904 -157.114091 1177.694363 105 84 131
-118.078820 -163.870477 1175.432893 41 32 68
-133.921328 -278.540453 1184.942341 40 25 60
832.559420 -488.172137 1230.886386 108 88 131
-81.471119 90.288944 1149.448045 47 34 79
-129.873001 165.152054 1141.440798 53 40 74
-129.873043 165.152036 1141.440626 53 40 74
-128.950353 139.705646 1136.810310 64 53 64
-144.730203 182.112594 1131.213143 60 51 62
-120.230130 135.287453 1133.568804 127 105 144
-29.683597 -11.588387 1139.672587 110 93 138
-112.908772 140.856628 1123.929480 120 101 139
-27.843636 11.656791 1132.772792 64 49 95
-83.208948 -260.114808 1147.718477 42 35 57
-82.256729 119.642085 1114.328579 86 73 129
-412.372345 290.916431 1100.927066 42 39 72
-16.904573 16.498418 1120.621437 109 92 145
-37.431970 30.181376 1118.825321 59 45 95
-9.304583 -10.063406 1119.647871 45 32 58
-9.304583 -10.063407 1119.647869 45 32 58
-116.280437 174.947343 1104.792308 75 62 83
-11.214061 44.971976 1114.293895 103 85 138
1.676405 70.238678 1102.464946 39 31 64
-38.516541 -174.580048 1121.475344 39 32 71
5.888642 18.972424 1102.442103 38 29 62
-407.592055 263.043006 1086.786485 146 118 161
-42.718404 -183.086252 1103.577015 41 35 73
77.940129 -254.258106 1105.526425 93 74 99
29.701940 79.171563 1072.730846 51 38 78
-13.664544 -84.963727 1086.243050 137 114 136
84.311500 -148.858542 1085.670196 103 78 91
91.236316 -258.579912 1090.176892 95 73 94
-371.227187 249.253917 1066.728686 71 52 89
104.810378 -356.152510 1085.069380 95 72 100
-462.414303 162.307311 1076.125179 82 64 110
13.360648 112.629323 1049.901652 29 29 50
-372.838172 266.118957 1060.879033 108 85 115
-372.838172 266.118957 1060.879033 108 85 115
109.804919 -360.678102 1080.714085 155 133 156
19.241849 -31.522710 1056.408294 47 40 94
112.968761 -363.860277 1075.971884 108 76 98
113.975873 -389.982884 1078.676534 98 70 89
109.886088 -380.234977 1078.514162 117 83 106
-362.316499 232.953047 1059.140401 50 33 69
115.309030 -360.278619 1074.669733 97 71 90
1.417387 111.936913 1042.086894 29 28 59
13.757206 94.809141 1040.577719 34 31 84
22.965171 -6.144050 1048.221499 23 20 50
120.629623 -379.403502 1071.913660 104 73 95
-25.421944 124.935324 1037.968335 70 64 83
125.331733 -260.098913 1058.446742 147 120 131
19.896948 -13.872232 1044.834387 32 29 76
125.693088 -318.006230 1061.295609 91 72 88
123.014940 -122.089438 1044.756226 65 51 64
127.747901 -359.113263 1061.402011 107 80 101
40.111603 56.467512 1033.584755 49 36 64
-373.599322 297.784060 1045.444035 141 119 112
17.980560 -16.597541 1035.612691 27 25 60
136.073917 -326.795801 1050.374882 107 82 109
139.113098 -359.899601 1052.197124 102 74 93
134.056178 -85.607147 1028.905973 85 67 88
135.356687 -85.876871 1028.066908 85 67 88
141.464785 -322.783735 1046.590096 95 67 81
-6.159157 147.014649 1015.011183 85 66 99
152.615166 -371.770762 1037.511436 165 136 150
151.702135 -121.918138 1016.524724 69 56 78
150.249563 -236.667975 1024.239629 140 117 133
152.182289 -254.608749 1025.529814 109 79 103
158.102023 -386.082863 1034.244498 116 83 91
161.096427 -365.777789 1028.869296 89 64 77
156.115097 -286.713327 1022.829112 144 123 140
163.719775 -224.639637 1013.393446 152 124 142
164.959064 -224.977381 1013.107554 152 124 142
161.206252 -274.579802 1013.727279 146 122 146
170.548694 -409.260462 1023.763369 112 86 104
168.041363 -88.096626 996.542997 76 57 82
168.829818 -206.809009 1005.325445 93 68 80
172.466530 -381.168754 1018.868399 150 117 135
171.516784 -243.461218 1004.933270 95 70 88
173.884729 -269.062308 1006.118212 91 70 95
172.420881 -288.787094 1007.500782 145 125 142
167.801017 -204.815801 1000.653642 137 117 134
174.949623 -241.033654 998.645779 93 67 82
184.252807 -399.487023 1009.477415 95 70 94
184.844145 -328.625798 1002.141100 74 46 63
180.350760 -10.246502 975.960244 68 51 74
184.152887 -393.043797 1006.299339 99 66 85
177.666801 35.942703 971.225811 73 53 79
5.889560 160.127904 980.552217 95 78 129
187.016584 -286.592157 993.426534 68 44 58
-336.318437 268.144929 1012.612446 77 61 100
184.646716 22.667919 968.013069 122 104 127
179.483303 50.673012 964.949325 137 119 138
180.158214 34.299124 966.528114 145 124 142
185.519993 -3.975473 967.455451 88 65 82
188.536975 26.121746 961.544173 57 44 61
193.841679 -163.616559 975.745928 91 69 90
197.760424 -430.529871 996.095825 151 127 130
196.430394 -289.041946 984.625725 99 72 83
196.430394 -289.041946 984.625728 99 72 83
195.865188 -10.337311 959.344483 75 61 85
195.865189 -10.337311 959.344484 75 61 85
190.934012 56.342979 954.093376 146 130 152
199.703724 -183.882779 971.814136 89 71 100
205.399663 -424.707642 989.569327 107 76 93
206.465816 -434.516732 989.550588 104 76 91
207.934836 -406.770870 986.788879 96 71 89
205.531600 -428.050039 987.012869 149 124 135
205.752477 -330.370927 978.986737 104 74 95
205.922874 -125.371321 959.443601 71 54 73
214.203501 -435.420924 982.257977 107 78 98
207.315070 -93.440960 952.842757 82 64 90
207.315070 -93.440960 952.842757 82 64 90
206.729275 -122.611995 954.557464 134 114 132
222.773064 -436.432657 973.040876 107 76 95
219.928602 -288.827085 957.655043 92 69 81
219.928602 -288.827085 957.655045 92 69 81
222.707826 -269.385425 955.099083 107 80 98
219.412450 -215.187619 950.910830 107 84 109
219.412471 -215.187616 950.910900 107 84 109
229.247519 -408.836371 963.248126 136 113 122
222.639019 -56.730058 936.642635 60 43 58
230.747406 -436.726547 964.413134 102 73 92
230.747406 -436.726547 964.413135 102 73 92
231.051244 -428.452130 962.936008 112 76 95
232.041314 -406.856021 960.315115 71 46 59
217.674814 84.283841 921.946315 141 122 141
233.588646 -434.077569 959.924589 154 126 144
235.108282 -292.876954 943.821778 113 82 105
228.707519 43.658919 915.100002 150 131 148
232.362118 21.859813 916.292881 95 73 98
236.396135 147.565261 902.774301 87 68 86
-331.376885 291.095108 976.808124 113 64 56
245.015622 117.463207 893.246846 73 57 80
-305.462055 296.761757 965.341092 113 64 56
257.976610 115.824394 880.426002 88 69 91
-253.298253 225.079437 948.349287 118 98 135
-258.826475 261.445963 938.979148 76 59 84
126.651504 -75.203320 878.331297 214 177 166
-239.858421 254.136828 925.676367 172 135 164
-246.558582 258.082603 925.037068 76 61 99
-77.346512 -56.281020 914.160760 239 196 182
-78.698723 -53.990717 912.715978 226 185 173
-102.299933 -243.963183 934.019849 236 191 180
-637.318691 95.595638 1019.128203 157 115 107
-67.700640 -7.758522 901.583132 241 196 179
-70.419661 -47.540504 905.096900 158 119 111
-71.642036 -52.107874 903.434512 222 182 167
-69.504303 -33.267892 899.558603 125 99 120
-61.866247 83.078662 886.652686 180 162 188
-90.240878 -234.598753 923.167147 247 204 190
-68.388506 -42.635047 897.839032 242 196 182
-633.502878 59.583561 1047.824031 121 87 98
-770.072204 51.333583 1183.658554 198 151 142
-70.797207 -97.448838 899.603397 198 151 142
-126.079584 -16.063871 903.315855 151 126 125
-54.550280 -129.892186 894.315690 181 129 115
-46.261401 -114.598309 889.010050 238 194 179
-95.457231 -266.188826 917.100625 255 214 197
905.039083 87.994070 645.083946 236 192 177
-83.384206 -259.100085 909.719091 223 182 169
-46.615597 -127.544730 886.428757 248 210 194
-118.511168 91.754799 882.960320 217 178 165
-118.511168 91.754799 882.960320 217 178 165
-81.111385 -264.345722 907.245755 188 137 125
-77.084229 -262.024960 902.459069 253 213 194
-46.454253 -95.658479 876.445036 169 145 150
-22.591281 -26.941276 863.089668 89 55 65
-617.695815 62.115690 1003.385951 181 128 122
-18.354443 10.169792 858.165547 107 72 78
-58.450109 32.096332 872.751067 255 206 189
-29.778600 -130.065945 871.309864 245 203 193
-614.432366 61.666176 1001.271388 181 128 122
-616.895389 61.939899 1002.876754 181 128 122
-27.255323 -135.246048 866.402937 134 91 87
-6.058965 -29.593268 848.919538 73 50 51
-20.583524 -44.754540 853.004274 225 185 168
-35.209326 -195.282250 866.320881 165 137 148
945.130581 132.061138 573.351522 155 120 117
-47.154343 -228.709219 869.851095 202 175 178
-411.839648 36.679762 869.766659 181 128 122
-201.980727 -158.133366 802.765769 84 66 84
-201.980727 -158.133366 802.765769 84 66 84
-157.996135 100.912012 726.184352 35 29 25
-157.996135 100.912012 726.184352 35 29 25
-466.525375 -11.070721 1644.316310 129 107 111
-467.076209 -33.490438 1646.306173 76 57 66
-462.111211 49.612684 1639.226073 69 57 69
-463.721508 -9.376016 1643.423334 47 39 40
-454.958299 161.442692 1629.956186 70 57 72
-455.085448 246.706865 1622.138124 133 107 117
-454.457064 263.804475 1619.135321 67 55 60
-463.445929 -38.847996 1641.813392 52 46 58
-453.255547 130.630164 1629.072423 60 52 58
-460.160329 -33.998173 1637.187860 100 75 88
-448.927402 240.881312 1615.789464 132 107 114
-455.558183 0.230132 1634.940170 63 48 59
-457.836851 -36.727227 1636.040419 145 116 126
-441.885288 265.608204 1609.363505 49 45 47
-442.158005 252.625332 1609.880369 138 114 120
-459.375445 -115.231617 1636.437304 119 93 102
-457.696946 -86.359714 1633.379998 79 62 75
-456.184847 -79.433005 1632.794647 60 47 57
-450.604021 -30.540307 1628.278618 96 67 82
-441.597199 109.249644 1616.372151 70 47 57
-429.465038 298.981489 1602.083061 60 45 50
-437.391219 262.723432 1602.874434 67 53 62
-436.596953 267.715155 1602.670727 124 105 118
-454.020327 -111.758348 1628.991445 79 62 72
-442.589186 2.769019 1620.109598 128 107 121
-441.092988 -29.188172 1618.086436 90 68 84
-441.092988 -29.188172 1618.086436 90 68 84
-430.814427 126.301708 1606.917953 60 52 55
-434.160166 14.291882 1612.375713 67 52 64
-432.626372 24.793709 1608.496921 82 64 78
-424.598109 261.627646 1589.434369 80 65 76
-439.829694 -88.357060 1614.947231 89 64 76
-429.737517 19.065581 1607.355077 74 50 66
-424.758701 157.286867 1595.171039 51 31 24
-422.406429 135.952750 1594.278757 102 75 83
-420.295758 255.558012 1585.133897 134 106 116
-418.753668 201.754287 1589.418444 53 41 51
-428.543959 -35.007166 1605.113640 104 78 89
-418.397343 224.050861 1585.356776 141 118 129
-418.294234 200.460875 1586.877113 109 91 93
-418.294234 200.460875 1586.877113 109 91 93
-433.823214 169.046003 1586.235244 242 175 157
-418.877002 144.124154 1590.917288 253 184 167
-423.590113 -1.875983 1601.589796 44 34 42
-423.590113 -1.875983 1601.589796 44 34 42
-425.369131 -33.372281 1601.476864 92 68 85
-428.146252 -88.226084 1605.391675 123 94 105
-416.007856 178.694922 1585.017996 73 51 60
-416.559035 135.430896 1588.173513 101 78 94
-430.337997 -117.148618 1605.066148 131 106 116
-413.409898 257.393710 1577.568201 125 100 112
-427.203106 -92.928390 1602.299710 56 38 47
-419.974549 -27.839049 1596.189280 89 70 89
-419.974549 -27.839049 1596.189280 89 70 89
-417.374995 -4.008927 1594.342135 70 50 66
-417.374995 -4.008927 1594.342135 70 50 66
-419.026902 -46.930731 1594.418396 127 101 120
-398.463872 297.571456 1568.657116 53 44 51
-402.737899 170.307207 1574.666493 43 34 41
-412.840069 -27.533679 1587.936407 95 75 93
-403.419228 116.561383 1576.873469 95 83 101
-403.265414 160.863227 1572.807300 123 104 121
-400.385497 192.742620 1570.211856 117 99 108
-406.562649 -11.900619 1582.779582 65 50 58
-403.251459 13.453481 1581.561690 59 45 59
-395.032959 11.583383 1572.341504 53 41 54
-393.100224 53.317639 1568.763161 115 96 107
-400.411736 -87.124141 1578.489859 62 49 61
-400.411736 -87.124141 1578.489859 62 49 61
-391.942968 76.681901 1566.219096 69 59 69
-390.022032 80.954958 1565.564282 49 43 49
-392.369420 42.518180 1567.113521 118 98 114
-387.973032 87.400409 1562.188636 99 90 108
-399.038906 -92.591833 1574.880082 67 43 54
-384.354043 222.181389 1550.170749 49 38 44
-389.964795 -9.412253 1564.948434 109 98 118
-394.490970 -87.861225 1570.440590 54 40 47
-382.545734 89.841531 1556.264650 52 46 57
-382.545734 89.841531 1556.264650 52 46 57
-387.571530 -7.138995 1562.408368 47 40 46
-379.845860 128.469329 1552.296253 113 91 87
-392.816426 -125.135129 1569.344847 56 40 47
-381.475196 40.895544 1557.283219 60 50 64
-385.021782 -9.362678 1560.258956 96 86 104
-393.455531 -131.337257 1567.912713 129 103 117
-387.919432 -73.126277 1563.176702 88 66 86
-376.391339 124.168113 1549.367371 42 34 41
-394.032872 -147.320027 1567.930270 63 47 60
-374.297110 147.551749 1546.184503 103 86 98
-375.185859 132.122646 1545.613153 92 84 103
-374.064589 117.381639 1546.789855 58 43 56
-372.126013 196.276668 1540.636537 47 38 45
-368.236802 258.717298 1536.559129 41 34 39
-390.841851 -145.951120 1563.740947 83 64 89
-376.066688 71.334276 1548.416649 77 65 86
-380.891098 -53.373605 1557.554543 124 98 114
-375.852410 69.411632 1547.839372 123 108 127
-372.213380 40.287474 1547.650990 63 52 64
-370.829552 72.497770 1543.474345 61 55 77
-377.911756 -87.771875 1554.853208 132 109 123
-377.656705 -123.469974 1554.256959 56 39 56
-374.133057 -90.378539 1550.410398 59 46 66
-359.231267 217.897674 1528.349328 48 40 48
-361.638563 115.322714 1535.489379 66 48 62
-372.423710 -95.070915 1548.193090 114 92 119
-366.479659 72.318024 1534.741209 105 88 106
-372.544602 -96.380417 1547.388319 124 107 127
-358.650736 84.542885 1531.155249 52 44 56
-369.265859 -115.879296 1545.285787 81 62 81
-366.831447 -98.485687 1542.418203 125 107 127
-354.487791 146.243332 1523.994631 36 34 41
-350.516419 244.820165 1515.502920 37 33 43
-357.107976 39.604905 1529.371522 107 84 102
-350.960630 271.718884 1510.484214 41 36 51
-357.148741 -47.812183 1533.522335 130 104 122
-360.115766 -90.346791 1535.754020 67 44 58
-355.703471 -33.127018 1530.832438 131 116 134
-353.234590 27.685751 1526.178840 119 93 107
-358.556022 -93.299680 1535.064316 58 47 64
-357.590299 -90.881819 1533.323219 79 62 84
-357.590299 -90.881819 1533.323219 79 62 84
-351.421514 24.123163 1524.621372 62 49 70
-352.245598 0.723969 1525.693713 67 53 74
-351.940978 -14.491859 1526.558512 53 43 56
-351.940978 -14.491859 1526.558512 53 43 56
-345.054939 305.240415 1502.534355 41 31 32
-345.054939 305.240415 1502.534355 41 31 32
-344.785360 139.521915 1513.257486 44 35 41
-344.785361 139.521915 1513.257486 44 35 41
-345.807806 37.701210 1520.078243 125 96 107
-354.137011 -47.497832 1525.114423 126 106 123
-341.170849 168.314186 1510.781133 42 40 46
-348.171934 -91.463700 1525.228265 124 106 132
-336.028501 237.152810 1500.288541 34 26 30
-344.200108 -34.539175 1516.337249 84 69 93
-335.452192 160.617934 1502.108299 55 46 52
-344.952929 -94.537836 1518.500113 120 101 121
-342.284892 -93.263192 1517.688565 56 44 62
-323.229424 322.469014 1485.562154 49 36 42
-321.580486 190.431899 1488.871626 114 91 97
-337.701980 -145.657263 1512.115943 125 107 125
-324.279405 30.805193 1498.958484 110 94 104
-327.823948 -15.559771 1500.916635 132 117 135
-336.180850 -147.158070 1509.956279 72 57 69
-325.815267 -17.513642 1499.586922 69 55 74
-328.161134 -88.897013 1502.791031 71 50 67
-327.288666 -73.601167 1500.153869 63 48 66
-327.033421 -79.919054 1500.669347 65 55 74
-312.955654 109.997723 1483.066044 41 32 41
-311.270072 77.227948 1480.652556 81 67 81
-317.734267 -52.214437 1488.898579 150 123 136
-320.370335 -143.266260 1494.139436 53 41 57
-320.178431 -159.613547 1493.747145 125 108 124
-319.631751 -164.734574 1492.354131 120 99 125
-310.008358 -14.086681 1481.673122 76 56 70
-310.782580 -52.308525 1483.088397 140 117 126
-314.020868 -173.283566 1489.312706 130 110 132
-310.872834 -187.794488 1485.903844 74 57 66
-308.799976 -167.108814 1483.084731 73 62 83
-301.724152 -51.197979 1473.677975 74 56 69
-309.151428 -153.911507 1480.653849 81 62 90
-308.299917 -170.525203 1481.268864 129 110 127
-299.143972 -25.865254 1470.756999 48 38 59
-302.023905 -109.460908 1475.222566 81 60 78
-291.056982 -57.346177 1464.747979 60 44 58
-298.665408 -198.030243 1472.359254 80 59 83
-298.457982 -216.570303 1472.725139 70 50 77
-293.692848 -167.781586 1467.110426 66 57 86
-290.664374 -167.322402 1463.740367 52 38 61
-286.137614 -93.531909 1457.629811 43 37 54
-282.941084 -64.859315 1454.515790 80 57 80
-280.195020 -62.136610 1450.341295 133 117 144
-658.948030 241.243226 1439.405205 34 33 66
-269.564941 -131.744870 1443.608943 62 46 57
-362.921723 155.604204 1408.225468 88 78 128
-362.921723 155.604204 1408.225468 88 78 128
-272.252880 -221.119833 1448.222431 74 57 75
-270.706393 -200.716336 1442.279389 68 57 74
-392.300976 319.679417 1388.369438 26 27 49
-376.056492 206.559593 1397.140694 37 34 68
-270.312008 -216.258971 1441.556543 137 112 131
