ply
            format ascii 1.0
            element vertex 3224
            property float x
            property float y
            property float z
            property uchar blue
            property uchar green
            property uchar red
            end_header
592.920270 -250.292729 1384.226904 208 173 163
536.808363 243.481347 1129.729603 103 76 65
603.386920 -328.307278 1398.278197 231 192 177
602.712919 -273.484537 1391.984193 205 172 159
568.240171 188.615818 1297.484944 190 159 150
586.125633 42.405332 1334.237607 205 174 158
581.317929 142.603270 1316.185081 199 169 158
620.915959 -309.936543 1409.837461 147 119 129
594.190651 93.098697 1345.375010 202 168 158
596.900904 51.104155 1344.260609 175 137 123
596.223306 125.143113 1330.580592 125 100 118
596.379083 154.054205 1329.000438 116 96 114
588.499471 231.624326 1301.078846 136 113 106
631.525223 -246.786777 1409.253896 99 81 81
635.633095 -234.567678 1414.546830 186 153 140
646.474375 -280.411880 1463.135053 50 30 40
639.845805 -245.899686 1419.260057 106 86 82
611.048316 87.619516 1351.085419 149 126 114
611.048316 87.619516 1351.085419 149 126 114
631.632819 -127.589717 1405.913607 147 116 113
601.378204 258.732612 1312.472775 55 35 37
629.325904 -0.484721 1382.059962 120 98 104
630.395284 -7.465379 1382.992457 147 125 122
630.395284 -7.465379 1382.992457 147 125 122
632.031403 -4.425416 1381.076393 38 20 30
632.806691 -9.634927 1383.261860 32 16 27
607.719920 262.548059 1318.437733 65 44 47
616.497918 235.499969 1330.103162 121 99 81
654.204676 -121.233175 1425.156442 190 157 143
677.221408 50.103110 1608.197663 97 81 76
663.346278 -207.058655 1445.076343 148 107 105
663.346278 -207.058655 1445.076343 148 107 105
619.078996 251.201228 1331.839826 149 131 122
676.725942 100.224541 1600.924513 88 71 80
623.924704 234.623776 1339.317159 69 51 45
621.489934 256.231116 1331.540812 143 128 121
622.018888 253.592958 1332.572659 93 69 68
621.483913 259.588421 1330.764207 89 66 70
679.097720 56.256216 1594.625100 95 77 85
676.892185 130.447316 1598.500263 99 78 85
676.469578 172.545666 1592.648195 95 73 78
686.581026 50.779878 1609.960643 41 28 31
674.253396 -224.604552 1456.446141 159 126 116
674.400609 193.332109 1583.471187 105 85 81
665.137791 -111.078002 1428.752885 94 64 58
669.375055 -124.517635 1437.446099 99 63 68
674.595179 230.987678 1570.237809 114 93 91
693.786368 36.629198 1615.730032 112 96 94
-19.979968 -302.742953 736.128029 186 157 150
-103.988639 -52.768505 802.666539 24 19 22
-18.274781 -292.072228 736.182268 136 109 113
-16.418639 -293.439492 736.969515 140 109 106
-109.815753 -19.844865 817.272604 28 16 9
-102.427511 -45.834621 813.161473 30 21 21
-99.070094 -51.336609 815.639352 23 17 19
-110.242141 108.559076 834.196599 86 73 68
13.793636 -198.620501 757.527174 70 52 52
17.751202 -277.141506 777.541712 183 148 135
26.037578 -295.791946 780.945972 185 154 143
31.704989 -292.381098 785.700216 67 47 48
28.688327 -313.907514 790.510212 114 89 97
28.688327 -313.907514 790.510212 114 89 97
35.627426 -194.908955 777.108033 81 69 85
37.149732 -221.895006 789.959036 60 45 51
36.414254 -237.709262 792.745040 54 40 43
41.608314 -285.178818 797.368645 17 17 17
54.690843 -300.038152 805.945689 17 18 18
55.741094 -327.321249 819.201307 169 140 135
-41.074912 32.638748 911.342590 44 23 14
62.925913 -282.041172 818.156434 51 38 44
62.696390 -277.081270 818.726892 48 34 39
63.467079 -288.505775 818.767735 123 107 127
62.735445 -272.336973 820.737460 100 87 103
65.721908 -262.277156 818.696752 103 82 94
65.790690 -285.784661 820.574634 71 53 65
64.885661 -281.973234 821.472631 67 50 58
63.213961 -289.891239 825.112156 116 95 111
65.332161 -277.995913 822.121212 102 84 100
67.784866 -283.440682 823.746884 58 40 48
67.428901 -270.165134 825.286396 46 35 37
67.428901 -270.165134 825.286396 46 35 37
71.192408 -270.720682 826.274043 94 80 92
72.329888 -216.538468 821.463514 103 88 104
72.329888 -216.538468 821.463514 103 88 104
74.138922 -219.259965 822.642044 63 51 56
74.074148 -211.082717 823.896072 109 95 120
70.068047 -265.122587 832.729572 117 99 112
70.068047 -265.122587 832.729572 117 99 112
73.476459 -269.406413 829.366899 104 88 98
74.265144 -271.431144 831.027545 66 50 61
72.319298 -267.572201 833.494541 34 24 28
75.711663 -245.430800 830.537942 35 22 26
76.631150 -334.175130 836.408471 93 83 91
79.719081 -317.590696 845.089697 94 58 54
81.700980 -322.554600 846.756182 160 131 127
84.862546 -333.045652 845.217111 91 80 84
87.617831 -332.280920 846.419338 91 79 80
87.617831 -332.280920 846.419338 91 79 80
88.480712 -298.620243 843.378267 121 100 99
86.264284 -277.682895 844.960146 16 16 15
86.011168 -317.022930 851.290176 174 143 141
86.967108 -311.970495 850.319796 177 147 144
91.206143 -303.358468 845.990913 88 72 75
91.966042 -230.611677 841.189939 125 106 113
89.663542 -328.610094 851.544727 78 66 80
89.663542 -328.610094 851.544727 78 66 80
92.087524 -282.274673 845.222636 99 82 89
92.899037 -332.158944 854.226547 75 68 77
93.961316 193.650713 814.107667 153 123 104
95.818676 -283.231192 847.636213 60 46 48
95.818676 -283.231191 847.636213 60 46 48
95.720363 -331.123345 854.929514 78 71 75
94.901351 -205.163893 847.949678 77 67 77
96.844757 -188.422620 844.287962 25 19 21
93.005211 -289.315682 859.892801 106 84 92
97.985381 -203.549247 853.682816 179 145 139
97.985381 -203.549247 853.682816 179 145 139
99.692002 -275.082147 863.259242 109 87 105
101.994316 -163.444153 853.820510 81 56 61
105.107109 -262.184076 865.579567 182 154 150
108.685472 -329.659117 870.880479 71 65 75
105.408007 -301.265861 881.611949 171 138 130
116.427823 -180.529222 867.851623 62 72 72
119.952042 -327.202273 879.424737 76 66 74
119.291495 -324.132581 882.895196 88 76 92
121.458911 205.199159 839.608613 132 111 99
124.844545 -327.032891 886.877129 68 60 69
125.426844 -324.908819 888.730499 36 25 27
118.394351 -249.447640 895.375417 173 141 137
130.542497 -326.414751 891.665520 19 14 16
129.296728 -113.955171 878.734942 93 66 73
139.404266 -126.320153 883.542397 46 34 35
137.703352 -219.511110 896.394063 129 100 94
124.612093 -352.470246 930.438598 24 14 15
137.977372 -311.829328 906.324325 183 149 143
140.602915 -324.774125 903.873087 73 62 69
140.602915 -324.774125 903.873087 73 62 69
138.276706 -70.962809 883.982020 138 119 117
138.609976 -61.048300 882.800602 119 100 108
141.966000 -138.808652 892.756706 83 65 60
144.005636 -320.808825 908.948817 117 95 102
142.397584 -71.423770 888.241102 118 97 99
147.727746 177.157701 859.453779 68 50 44
145.583632 -19.763722 882.905192 92 75 84
149.108574 -323.412558 911.778004 77 64 67
149.886791 177.666677 860.846098 99 82 75
146.142182 -339.877885 920.800375 63 47 56
176.079304 -301.386018 870.374198 41 29 33
151.755619 -319.975825 917.742465 97 82 88
153.377088 -69.446553 892.249711 117 98 94
153.781917 -324.154186 920.697742 30 25 24
155.929690 -276.668601 923.026966 152 113 109
162.745918 -50.934142 904.805220 48 41 38
163.496934 28.432403 900.627573 161 130 125
164.731334 -19.145863 906.433279 175 143 131
164.992022 -35.868624 907.770777 164 130 116
165.339001 -10.539212 905.436520 173 136 123
165.562568 -3.519701 907.430066 92 74 91
171.031456 94.113358 900.717025 173 137 129
175.959539 38.862923 902.441426 185 150 139
177.321726 139.489659 904.313712 108 100 90
179.026047 115.386321 908.561727 68 37 27
182.474995 -261.082515 949.184501 156 120 112
180.230988 127.372000 909.493223 124 84 100
185.742404 -287.230434 953.821633 163 129 119
187.253991 211.310590 895.042708 61 46 44
184.410132 116.019542 914.273432 67 36 28
187.452534 109.987199 918.067815 147 102 101
188.525012 134.567903 917.939418 179 148 135
204.997257 -164.277724 961.940692 163 124 114
205.922014 133.475492 934.695655 170 137 132
215.590695 -189.206439 976.034267 214 176 163
221.497954 -283.355119 991.450690 167 128 121
221.497954 -283.355119 991.450690 167 128 121
225.240911 -361.740330 1003.177004 133 99 97
222.149483 2.890811 963.858847 142 109 96
228.266250 -294.211717 998.422600 176 136 133
228.174058 -114.783225 979.919123 185 152 148
232.103208 -291.704792 1003.002311 164 126 121
232.103208 -291.704792 1003.002311 164 126 121
233.793911 11.558731 976.005668 172 137 131
236.264316 -38.211474 984.068469 153 119 108
243.420338 141.792877 945.511706 93 56 42
240.907744 -68.033059 989.334938 91 73 70
243.525887 8.609791 984.530654 59 36 31
244.213251 -14.911614 987.318190 111 81 71
241.968428 110.233124 975.116532 57 42 41
243.867425 151.392523 968.101178 61 49 49
247.330630 141.171338 970.135501 166 134 124
247.333129 43.367778 987.242991 182 148 137
247.333129 43.367778 987.242991 182 148 137
247.315264 43.352865 987.313274 182 148 137
247.315264 43.352865 987.313274 182 148 137
254.037602 -101.678884 997.234454 116 93 100
251.653200 -62.687500 995.941649 29 24 22
248.950224 3.133886 991.294513 149 118 109
252.065982 -62.508553 994.517894 29 24 22
247.135212 64.749701 985.245436 179 147 136
245.806176 131.132463 978.558672 179 143 131
247.939944 137.408973 974.435122 176 141 127
256.369706 -171.401217 1008.999440 201 166 153
256.486791 27.798299 993.519458 128 101 93
256.486792 27.798299 993.519459 128 101 93
256.486790 27.798299 993.519458 128 101 93
268.687763 -358.507257 1047.116477 169 133 123
263.850653 -115.568931 1020.485597 144 125 127
259.781648 87.714640 992.621106 75 52 47
270.414116 -360.266012 1051.522860 167 130 119
270.720613 -360.006085 1051.039079 167 130 119
262.885720 40.710080 1001.837093 114 93 100
266.257279 -104.660445 1023.429103 134 112 122
263.808514 33.761266 1003.062920 66 49 52
262.425143 58.793441 1003.196202 129 107 120
263.222208 47.212661 1003.921204 58 43 54
280.536034 192.531602 938.139483 57 38 32
270.599631 -114.006434 1027.345057 77 54 65
272.903245 -121.741617 1030.439525 60 46 57
272.903245 -121.741617 1030.439525 60 46 57
277.585168 -136.596723 1036.591546 46 33 37
271.918127 -43.167107 1036.350114 38 29 34
279.312432 -140.331012 1037.671037 109 86 100
282.524831 -227.779375 1048.793896 141 112 115
270.895532 -59.515549 1048.876513 135 109 112
271.344506 -56.843984 1051.945500 139 116 120
283.436981 -150.710650 1044.113973 42 33 37
261.019415 86.780580 1064.689523 167 150 152
286.040033 -157.702442 1047.551549 74 52 63
285.400953 -142.539329 1060.287002 160 139 138
284.761181 -138.337532 1062.457048 71 56 65
293.574468 -181.623343 1057.779864 87 62 75
293.704829 -217.331340 1069.682597 93 73 71
290.413379 -152.965890 1074.236188 68 53 56
301.985579 -233.961076 1067.948371 176 139 132
303.415530 -207.254854 1062.069870 59 41 40
272.780873 -96.464004 1132.181192 75 62 71
302.617596 -192.406623 1067.538668 88 64 71
311.630793 196.664545 966.650689 92 62 57
285.602333 -120.051982 1119.972078 139 112 124
307.525450 -189.053983 1070.579202 116 94 107
311.698099 203.939141 965.645492 93 62 54
308.441000 -268.201960 1087.131557 198 164 155
302.827135 -172.886271 1081.809485 131 106 117
313.212532 -233.739172 1077.305476 95 73 63
274.421111 -48.857416 1156.975657 90 71 71
312.097134 -201.878661 1078.400558 75 52 61
306.104573 -166.316161 1096.681616 120 94 104
293.626148 -133.168294 1130.146902 148 123 120
294.429386 -143.451415 1130.324204 68 55 59
294.429386 -143.451415 1130.324204 68 55 59
332.910110 221.449018 927.431479 77 50 42
281.840019 -46.068291 1165.367534 29 22 23
325.033661 -338.501616 1106.981690 184 147 135
286.075509 -49.324109 1165.688686 112 86 84
322.353787 -210.391720 1090.209407 71 48 61
285.488662 -257.284252 1229.301433 108 87 106
329.942061 -357.448255 1110.904390 187 151 143
303.776925 -143.194360 1142.813048 133 109 114
330.319156 -340.979388 1111.744803 181 144 129
289.543197 -257.480777 1238.561750 72 51 58
332.273070 -324.785025 1113.084561 171 130 118
334.619866 -238.997664 1097.498539 89 70 63
338.329664 -332.903524 1114.455709 60 38 33
338.099940 -304.522812 1111.231923 66 44 39
336.576416 -249.539522 1104.241152 50 35 30
344.032577 -370.594168 1126.030345 180 144 136
337.001371 -204.527459 1109.155742 51 42 50
343.235929 -248.955542 1104.459643 129 105 112
344.423296 -333.333104 1125.323745 118 93 98
348.426021 -348.577054 1120.424494 122 100 101
301.795634 29.978824 1177.160816 255 190 172
301.414806 43.155511 1175.416660 255 190 173
301.315024 49.063752 1175.549275 66 40 31
348.057161 -368.185034 1131.405456 174 133 121
349.649798 -377.942330 1134.771116 171 136 122
351.089864 -348.754237 1122.694610 35 25 24
346.615504 -238.986539 1108.159468 136 113 118
344.891621 -208.769505 1116.828057 89 66 76
352.137543 -339.616460 1129.808690 23 20 21
348.410774 -247.335166 1118.095434 62 42 41
348.725099 -285.786265 1129.660818 138 115 110
348.725100 -285.786265 1129.660818 138 115 110
349.336216 -270.996456 1127.657199 94 71 70
349.293445 -260.646014 1124.863517 139 114 110
350.089817 -249.426194 1121.306762 143 118 111
351.311955 -243.089485 1115.518084 157 135 127
350.787922 -263.913318 1126.780258 83 59 58
349.523907 -217.627422 1119.594520 72 51 58
352.176680 -275.464550 1128.993917 161 136 132
349.670904 -225.717800 1121.556664 114 88 101
350.360967 -214.277394 1119.273664 117 92 89
353.616968 -235.938633 1117.224629 109 88 73
361.047451 -372.407377 1134.389072 123 100 105
354.091801 -269.215734 1129.172310 113 84 79
356.087675 -250.838459 1121.276846 165 141 136
352.854830 -212.884710 1123.260304 104 83 92
355.480875 -259.329458 1128.951998 48 33 30
354.484039 -218.641048 1125.443021 109 87 101
356.945884 -263.800677 1130.595721 165 139 128
359.385590 -305.746138 1137.465746 188 159 146
371.484397 -196.575780 1064.724759 29 20 22
358.829113 -266.926981 1135.292793 81 58 50
360.191595 -311.616128 1144.318579 115 86 82
358.935881 -219.417184 1129.468562 103 82 94
361.470043 -241.077546 1126.726550 124 102 86
361.904580 -259.807887 1134.988071 135 111 98
331.107844 -117.993216 1211.956078 96 74 78
327.289101 -39.612807 1211.181378 36 26 28
330.511617 -51.664954 1215.482757 125 97 107
392.533539 -182.179975 1016.368781 108 89 107
364.018472 -213.560769 1141.404165 107 90 92
332.063636 -42.670431 1213.040874 67 45 50
371.077006 -327.601238 1157.538160 116 86 82
364.695479 -210.211982 1144.909682 29 25 27
367.975985 -218.118928 1140.053233 33 21 24
373.700243 -338.973285 1160.589109 156 133 127
373.795492 -325.697863 1158.272780 170 144 139
373.758328 -329.871196 1160.164322 117 91 86
335.793363 -39.972474 1220.049798 97 80 82
375.539929 -359.419170 1166.494682 97 75 70
376.276964 -345.973477 1164.444495 121 114 118
377.257992 -338.950877 1164.881517 145 124 115
379.582138 -314.587845 1157.099856 177 146 137
375.125579 -216.588468 1145.410289 112 87 94
382.545929 -352.179642 1166.812288 104 83 78
345.809530 -92.995803 1237.308457 17 12 12
388.117461 -351.486519 1168.956138 93 67 64
374.769625 205.350192 1030.443788 96 65 60
388.063472 -300.797365 1161.266657 110 82 74
388.995906 -337.686765 1171.559936 173 149 144
388.559615 -310.477057 1163.919069 132 103 94
387.395635 -328.193827 1177.223188 151 130 126
388.138888 -284.598001 1159.704014 117 85 84
389.681129 -302.692415 1161.873411 153 126 118
390.531183 -339.365649 1172.331150 121 98 99
392.036796 -350.792367 1172.451936 102 81 81
390.546796 -288.196056 1160.439227 169 143 135
392.071085 -345.320692 1174.998063 167 148 141
391.576529 -338.354345 1176.752189 168 149 145
390.720098 -327.998347 1178.206228 113 89 85
391.848233 -314.390236 1169.837151 195 168 161
386.568065 -215.764846 1156.992980 115 90 104
358.091357 -94.305867 1241.944789 96 72 76
394.280685 -346.578476 1180.036814 112 92 93
395.000022 -350.180385 1178.374502 107 87 88
393.094476 -326.163707 1178.497530 157 132 127
394.222571 -289.229082 1165.427478 132 107 101
394.222568 -289.229082 1165.427477 132 107 101
394.859572 -325.627497 1180.646070 134 105 101
395.134927 -331.356922 1182.870646 112 86 80
374.661119 -140.513665 1216.794460 127 97 94
363.426963 -83.556457 1248.673581 104 80 84
363.426963 -83.556457 1248.673581 104 80 84
419.424911 -15.715648 966.898827 88 70 71
401.675527 -303.712407 1182.007776 158 129 124
401.763714 -242.800152 1172.690522 173 144 134
406.182297 -342.604164 1200.304520 69 48 47
406.182297 -342.604164 1200.304520 69 48 47
407.411544 -243.096547 1176.278454 92 63 56
411.260694 -312.318428 1196.739680 75 55 53
411.754649 -269.722386 1185.565436 179 152 141
411.683943 -264.707188 1185.297195 84 57 57
417.006950 -319.070277 1197.023536 175 148 139
413.412386 -242.049929 1186.569365 168 140 130
416.747639 -299.726752 1198.765690 166 137 126
416.005857 -264.382593 1195.135782 154 130 121
424.206711 -381.410353 1205.320993 186 151 141
423.185833 -338.838053 1198.632540 39 29 22
417.047571 -256.152053 1194.536588 144 119 112
417.871871 -260.641496 1195.143740 107 82 74
423.966968 -329.975562 1200.840096 139 123 115
423.872372 -333.438227 1203.101803 41 27 26
425.981117 -343.337649 1198.868212 96 72 72
421.215308 -255.537959 1196.404867 81 57 55
421.215308 -255.537959 1196.404867 81 57 55
401.230019 -106.848558 1239.870376 120 92 91
426.311953 -330.129681 1209.317713 23 18 19
431.124428 -354.913495 1218.108229 179 144 134
433.184146 -337.373711 1210.109443 28 22 16
433.122193 -266.385855 1202.696267 59 38 39
432.916441 -238.442706 1199.422396 56 36 30
433.052748 -232.524047 1197.489323 53 33 29
436.263237 -240.364112 1200.354028 119 98 93
398.634478 120.975550 1240.144247 66 51 60
443.662270 -352.510652 1229.381999 187 152 140
438.068865 -227.250209 1201.080842 104 81 79
434.437102 -183.263983 1211.125319 37 29 30
434.437102 -183.263983 1211.125319 37 29 30
437.461954 -198.554457 1209.333565 112 88 92
437.461954 -198.554457 1209.333565 112 88 92
441.864731 -243.269550 1211.123609 182 149 140
414.322533 14.523393 1246.975880 142 112 99
417.007125 -7.742326 1242.368804 91 68 73
446.962018 -230.208628 1219.759662 171 141 134
429.451759 82.388599 1240.017601 49 35 38
427.226352 131.889066 1226.084289 40 22 19
428.851372 120.846563 1235.234746 49 35 40
439.108876 14.822296 1247.266820 139 112 99
463.047841 -214.776463 1235.787020 174 141 126
437.466309 123.404189 1233.547407 133 103 95
464.897475 -168.616570 1235.904003 68 46 56
467.784437 -169.835706 1235.643731 119 98 105
452.812972 225.108088 1080.756205 75 53 47
460.072696 -92.330555 1248.170028 103 76 79
466.633080 -146.412662 1239.285740 90 67 71
456.427111 -15.039848 1237.360426 24 22 22
443.513047 135.952254 1235.980047 42 28 31
445.183249 190.942238 1218.663683 60 43 51
448.196013 142.327345 1233.884039 92 74 70
470.176662 -110.776780 1248.237208 123 101 101
479.674792 -194.836301 1251.953521 167 136 121
474.218188 -122.796308 1247.494294 45 33 35
453.053312 136.511167 1234.469934 45 27 26
463.316792 14.595446 1248.051927 146 116 103
466.391188 -8.864444 1244.963349 115 93 89
476.534367 -86.051810 1252.145108 131 108 105
456.443422 194.997853 1211.163142 134 93 84
461.235329 129.920989 1233.902276 137 109 95
474.064101 -3.729907 1249.028721 42 31 35
462.884254 153.732671 1221.609939 88 67 83
479.787158 -71.999305 1253.629093 103 80 85
479.787158 -71.999305 1253.629093 103 80 85
475.735453 -14.394416 1244.472746 24 19 21
476.621156 -20.499896 1241.915283 47 34 37
484.564970 -102.165329 1252.888960 96 73 80
480.916025 -18.199158 1241.012805 104 88 96
466.782540 160.070668 1238.559057 47 33 42
488.198365 -86.642781 1255.355258 91 69 73
481.836180 -8.258778 1249.508201 107 86 87
481.791150 1.752593 1249.125008 122 101 101
479.871210 64.977680 1240.015277 108 87 90
492.269788 -88.969489 1256.923642 30 22 23
499.887646 -162.209225 1267.857904 181 148 135
495.129948 -72.505989 1258.799638 30 21 23
497.208855 -75.648035 1258.764924 95 75 86
559.443248 -16.476527 626.426701 58 44 50
496.807565 -56.308732 1258.961650 33 26 29
496.807565 -56.308732 1258.961650 33 26 29
507.008735 -162.124731 1283.673762 188 154 143
496.134281 24.169795 1250.025976 38 30 34
496.341932 32.741809 1247.406585 104 85 94
488.129828 174.594086 1221.722103 112 98 107
496.693981 59.568921 1253.509038 68 51 54
495.209366 98.291604 1240.316227 105 86 94
494.944563 110.803328 1236.380470 84 63 60
504.555035 -27.691150 1285.881681 67 53 60
498.875009 100.372106 1241.831806 69 48 63
493.910977 176.291074 1217.364504 92 78 100
508.627325 -26.196780 1271.160710 67 53 60
494.929750 222.274217 1153.700080 100 73 62
523.526785 14.631864 1191.414220 29 22 22
503.944804 74.165228 1246.330523 28 21 24
495.325754 204.483140 1212.219311 118 95 107
520.210218 -94.995837 1280.963023 91 66 57
508.123332 66.847718 1247.902081 93 74 91
509.586619 115.566061 1245.273358 90 53 45
518.591094 11.166018 1270.194235 73 60 69
511.500004 125.977259 1245.752002 93 51 43
520.031293 29.469403 1267.583489 196 163 148
518.475475 48.999488 1263.790445 97 72 77
514.232471 119.885956 1249.812016 255 222 208
510.219951 164.888367 1250.680087 180 149 136
511.508767 164.499203 1246.058516 180 149 136
512.304554 156.175739 1250.787003 182 153 135
514.879099 145.005246 1249.585290 106 91 93
523.680674 63.710088 1266.227850 191 161 147
522.293992 139.926508 1255.146456 190 163 145
539.793860 -28.642785 1295.099108 125 93 84
544.337978 181.349694 1253.508901 165 137 133
597.539448 -413.263674 1392.693109 102 64 71
601.248526 -398.331631 1392.352449 116 86 89
591.550522 -291.893016 1379.164906 201 170 155
591.842899 -291.411037 1377.563018 201 170 155
557.311887 110.634361 1293.889215 177 146 141
596.056104 -305.806315 1380.726569 116 87 100
551.935733 189.221342 1259.709014 120 96 81
605.307273 -365.244078 1398.161468 188 153 141
605.307273 -365.244078 1398.161468 188 153 141
607.799956 -376.143106 1400.407166 203 173 158
603.713246 -327.172149 1394.679106 214 175 161
560.926152 194.598527 1292.439588 83 72 68
628.671095 -398.068164 1424.564477 58 39 49
572.628795 191.109278 1305.515247 81 60 55
632.004464 -395.777286 1429.105882 97 77 85
632.004464 -395.777286 1429.105882 97 77 85
634.027816 -401.312238 1430.047925 59 41 48
633.785749 -391.303949 1425.355562 71 57 59
635.762080 -398.069536 1434.644996 50 34 41
599.972336 -18.661075 1357.721981 179 145 136
638.076321 -392.329623 1439.115424 50 34 37
624.454864 -242.119984 1405.479900 145 113 108
579.623911 220.447274 1301.507406 52 32 27
636.407181 -352.811939 1434.782143 27 20 21
600.028873 19.018740 1351.591729 26 19 20
595.479351 85.003390 1341.057736 110 87 98
641.375724 -381.313232 1392.543607 50 34 41
586.988012 182.425089 1322.850157 150 128 123
594.274087 120.835923 1336.134712 120 92 104
646.219638 -390.880071 1446.562042 51 36 41
646.219638 -390.880071 1446.562042 51 36 41
647.265804 -402.153258 1437.869387 115 92 106
647.801111 -393.344186 1445.305075 100 84 90
602.911078 57.296747 1354.224401 32 24 23
634.061777 -250.592331 1407.922598 25 19 22
586.448136 229.203532 1307.057033 74 51 52
649.616540 -398.210439 1445.126515 56 38 46
650.398838 -388.033426 1451.015557 96 77 86
600.345632 115.652366 1342.431501 107 84 95
616.034319 -40.435844 1372.317355 55 40 33
656.355792 -391.997839 1453.568083 93 79 84
656.339592 -385.240545 1460.759315 56 33 40
600.093107 168.133084 1339.286338 113 89 102
649.941873 -311.967901 1467.080416 71 50 53
657.879305 -396.636383 1453.526229 52 36 42
658.863784 -389.252816 1457.431451 67 52 56
594.201632 250.535648 1314.629375 114 96 86
621.790449 -11.430778 1375.255456 145 125 120
664.325727 -414.667070 1450.751906 113 94 102
605.333093 170.419785 1343.008124 92 42 41
661.657012 -365.978172 1462.378485 146 115 117
616.866558 68.247613 1365.520030 112 87 79
644.252595 -194.507718 1419.814848 140 106 103
623.141859 20.905771 1376.073998 69 47 64
605.964546 190.960213 1340.979591 114 52 70
653.988708 -268.042160 1448.310053 114 89 93
620.933319 48.930973 1366.346811 106 86 92
599.075764 265.200598 1316.245111 48 32 35
655.956101 -272.809773 1451.010174 72 51 61
600.026343 261.950128 1318.148107 107 90 87
669.749970 -311.050508 1748.615863 41 28 23
636.575835 -81.059841 1398.605814 74 55 46
628.429395 17.137877 1382.291471 109 93 98
672.137753 -389.724718 1469.043008 85 71 81
632.595392 -4.977278 1385.636323 30 15 23
614.480357 172.795763 1354.143376 123 99 102
639.489138 -42.553035 1399.602477 105 85 89
610.556184 230.909726 1332.341677 101 80 82
649.631855 -109.373204 1430.344943 190 152 142
679.731479 -397.926773 1473.102308 91 71 88
650.953733 -107.811131 1420.581984 190 152 142
682.101818 -393.622192 1478.089023 56 38 44
613.503972 249.387889 1333.726405 53 35 30
663.457725 -206.933394 1442.804091 131 93 91
613.724080 266.927332 1331.542936 47 32 37
615.719524 263.176211 1333.600333 57 38 34
615.719524 263.176211 1333.600333 57 38 34
688.505440 -410.422586 1474.048440 86 68 80
617.747757 255.384864 1337.933847 67 49 41
688.024932 -387.342531 1485.163880 87 72 81
666.250770 -182.728655 1445.365542 185 149 140
655.358393 -84.326020 1413.247098 154 128 123
664.446165 -164.787434 1439.108473 178 143 131
683.342822 -290.714082 1505.178695 125 105 104
674.333518 -224.347799 1453.383975 141 111 105
676.892465 -241.334477 1452.115453 41 28 28
695.351444 -396.618152 1491.208313 103 82 97
669.623634 -138.517308 1439.456212 77 51 56
676.091751 -167.717831 1445.822850 50 38 38
695.588767 -332.265727 1498.357198 97 77 77
663.796757 95.115717 1607.090775 102 77 67
665.193241 52.243166 1596.105365 85 71 75
675.511479 -138.422824 1448.115303 40 34 33
694.594045 -268.666039 1490.318549 104 84 87
694.752481 -264.129441 1489.635446 117 98 99
682.517582 -155.011330 1447.150807 116 95 86
693.128066 -238.901573 1468.783104 41 28 23
706.087091 -341.518061 1509.033933 145 124 120
676.811114 -86.555908 1441.700433 99 76 83
693.803849 -229.957517 1473.988423 175 143 130
707.115307 -336.931424 1508.885729 107 85 92
660.707533 201.603583 1584.057782 93 75 79
690.494143 -173.791234 1465.810772 110 89 92
661.121529 213.044021 1579.865293 114 96 93
698.592536 -225.930936 1478.068108 130 97 93
684.662722 -100.768126 1437.819565 94 77 90
701.656027 -239.409639 1475.521268 82 72 65
690.161534 -137.150332 1456.981886 90 74 82
690.161534 -137.150332 1456.981886 90 74 82
668.284852 194.907162 1592.840731 26 20 22
688.307676 -109.298437 1448.297039 30 20 25
703.197223 -228.254496 1482.573747 171 141 129
690.966946 -113.545254 1450.189794 89 74 90
693.521041 -119.037325 1458.200362 52 36 48
649.570586 269.914585 1377.784199 168 137 122
709.294852 -237.893879 1482.375536 75 66 61
674.735708 198.938018 1588.211051 104 83 81
691.917754 47.191347 1617.689545 108 93 90
727.818364 -375.228051 1534.171429 53 36 40
730.044797 -386.316503 1526.205404 51 31 39
730.044797 -386.316503 1526.205404 51 31 39
678.516509 193.578270 1596.465327 94 76 77
679.362885 200.511487 1594.883222 106 87 88
708.380734 -167.956938 1484.319678 110 87 89
17.935939 -375.018775 796.468750 61 39 35
20.674282 -373.296071 794.638394 57 33 34
33.143514 -339.478064 785.739430 69 63 71
38.680544 -221.420257 784.470256 125 106 109
36.836470 -339.121257 788.303513 20 14 16
38.377936 -230.360191 786.293538 119 104 110
35.104010 -335.477312 789.872124 84 74 82
38.877879 -302.625909 790.058439 69 56 62
24.261077 -424.119737 805.982409 51 34 47
99.630479 -307.126704 751.229122 69 63 71
18.239121 -385.213949 812.461672 80 59 58
43.266641 -284.165611 796.055048 16 16 17
14.910536 -372.713326 818.287717 120 103 117
29.278505 -435.453466 809.747859 99 84 98
23.605773 -429.107771 815.281109 110 97 113
45.327536 -291.395686 799.522146 141 126 134
47.917596 -300.690195 798.453802 123 109 119
17.183859 -367.680021 824.754724 115 98 111
154.545415 -280.373375 722.721233 69 63 71
49.369393 -252.088110 802.476236 122 104 111
49.369393 -252.088110 802.476236 122 104 111
51.824761 -337.128225 805.685842 20 16 16
54.682498 -336.584232 808.513348 71 65 65
57.620533 -279.202485 813.539339 88 75 88
60.436320 -336.065685 814.054333 22 19 19
61.332709 -260.399614 814.125367 59 45 50
61.332709 -260.399614 814.125367 59 45 50
63.261024 -335.220689 817.273692 71 67 68
65.155245 -334.876138 819.079578 78 71 69
70.218924 -216.783039 814.106268 52 38 41
55.309631 -359.413581 833.541788 26 14 12
69.056430 -334.665517 822.303271 23 19 18
68.282986 -282.089485 824.034771 65 49 53
69.929008 -268.760299 823.191030 50 40 41
74.849070 -215.319656 819.525909 102 88 104
69.812356 -334.550320 826.298173 74 67 72
60.660875 -358.366825 836.551051 138 112 107
75.367147 -210.023175 822.807145 113 96 122
71.903821 -334.121450 828.291907 79 73 74
61.195671 -363.191481 838.803531 62 43 45
60.837476 -367.825938 841.145037 53 36 48
76.133960 -221.451504 826.543097 112 90 107
58.228774 -407.822594 845.163340 63 41 44
77.158567 -333.164701 830.600325 27 22 23
77.438589 -244.297463 828.987997 40 25 31
62.630897 -374.869958 847.628232 148 125 135
62.630897 -374.869958 847.628232 148 125 135
81.030354 -332.534611 836.475403 96 83 85
68.488465 -424.935719 852.773885 51 32 36
84.426882 -332.733290 839.727371 28 23 25
55.111648 -367.429116 867.974474 37 23 16
86.837259 -182.520174 839.410180 18 16 17
89.107500 -282.847418 841.352810 88 71 78
89.467963 -172.488718 838.538328 118 94 104
101.967528 194.441677 820.076204 156 128 114
91.686314 -300.668540 842.867801 74 60 62
91.336469 -176.891395 840.734832 143 127 130
88.888787 -320.593432 852.611297 178 146 142
97.826400 -203.069789 853.812746 179 145 137
100.406597 -330.195991 856.891914 24 18 20
99.883942 -258.330803 857.193324 109 89 107
100.951018 -255.034958 857.956141 108 87 103
99.600995 -309.889885 866.883985 198 164 151
104.181797 -326.325825 866.074849 79 70 81
108.492024 -329.015132 865.690630 17 15 15
85.499207 -394.952853 891.818630 42 24 17
101.669367 -355.691405 878.985165 118 94 108
116.258622 -327.493272 873.421481 22 17 18
117.633585 -327.717558 877.923300 68 62 68
102.822739 -402.864260 894.829270 137 115 130
107.827471 -353.414960 889.898240 141 120 125
109.467971 -352.522266 888.771709 141 120 125
104.005031 -361.925261 896.042760 76 60 73
108.435510 -417.427648 894.124674 61 45 52
108.701768 -421.577875 897.540932 67 50 63
106.939276 -413.789222 899.531834 72 57 64
127.163362 -119.378932 874.600717 87 61 71
141.022591 171.401448 852.407376 117 95 93
207.561687 -109.550266 809.937963 110 88 105
142.103316 143.689490 858.612615 76 92 86
138.240009 -43.116400 873.801166 116 96 93
139.894253 -42.780440 872.494900 116 96 93
135.456521 -93.321564 881.240536 88 65 71
138.862448 -60.245173 881.193988 118 100 106
138.026180 -320.700641 898.915024 118 96 101
145.445180 -10.667113 880.543323 92 77 84
141.507219 -324.091670 902.813066 78 70 70
141.507219 -324.091670 902.813066 78 70 70
144.546373 8.455231 885.905783 131 110 113
142.923102 -332.275348 904.938600 85 74 79
148.397682 10.587087 884.346380 132 111 111
150.510385 31.246097 883.585978 128 107 107
150.510385 31.246097 883.585978 128 107 107
147.363757 -323.749512 907.814365 23 18 19
155.112562 -68.528190 890.789792 118 99 96
148.171723 -359.117904 920.982181 59 42 54
144.380538 -429.986766 929.729904 91 73 79
151.427215 -128.143204 908.012341 192 160 148
151.834639 -343.403674 921.831822 147 126 128
159.062622 -411.017945 928.062010 130 105 119
163.966810 29.173798 900.956210 167 133 128
167.171161 -12.327615 906.642313 173 132 122
169.118679 -11.991966 905.452558 173 132 122
170.669006 95.689109 900.842430 176 141 130
165.355069 -439.591644 943.491975 113 88 106
168.161457 -338.344122 940.668647 187 154 145
182.075259 -12.783689 906.722142 168 135 127
170.544035 -394.698023 946.932037 196 163 155
183.189561 149.385509 901.035916 121 107 102
173.655747 -431.792048 951.231911 201 166 160
173.655747 -431.792048 951.231911 201 166 160
175.152672 -385.566704 950.051876 194 163 159
175.152672 -385.566704 950.051876 194 163 159
175.194851 -336.750030 949.059007 189 155 149
176.580009 -410.266593 954.002827 119 96 111
176.580009 -410.266593 954.002827 119 96 111
178.509143 -346.508755 949.342784 108 88 107
178.842278 -367.396897 952.391527 103 87 108
185.225618 116.240137 913.995787 64 34 25
177.558189 -421.898411 960.172779 128 102 119
177.558189 -421.898411 960.172779 128 102 119
179.728567 -376.251704 955.013866 193 164 158
181.887828 -374.748324 953.169719 193 164 158
188.134412 110.407612 917.773001 152 104 100
183.724447 -419.141718 963.539207 197 165 154
185.026437 -360.733483 957.589326 192 160 155
244.647579 179.051555 911.143399 70 51 44
222.339894 3.384626 964.138339 139 108 96
221.750599 -282.933047 991.034340 169 133 122
231.757241 -291.687192 1003.385909 164 127 123
234.849140 -439.492016 1017.201762 152 117 127
237.850427 -100.125534 990.410578 162 126 116
237.850427 -100.125534 990.410578 162 126 116
245.101446 -66.951914 983.520364 98 82 81
242.162518 -127.944676 997.111608 176 143 131
242.158414 72.384860 977.940829 84 61 55
243.712156 -430.875562 1027.562596 149 114 114
243.925430 -14.285432 987.745450 117 85 73
244.080255 37.466621 982.469907 46 33 34
252.592185 -89.722667 994.169793 104 81 87
247.924672 64.974976 984.559685 181 146 141
251.184141 55.180736 988.975271 107 79 91
251.371686 91.513164 985.161260 138 112 106
253.550616 113.465401 982.153138 39 31 32
253.550616 113.465401 982.153138 39 31 32
251.923679 137.339456 982.575871 128 105 117
256.133045 37.388895 988.625846 110 89 78
257.102327 -417.481912 1039.707648 217 181 171
256.668033 28.258017 993.573062 133 105 96
259.670889 40.011514 999.060453 50 37 37
262.634224 -423.309658 1047.806075 222 183 170
260.066722 -23.295332 1008.095159 51 36 37
263.032074 -184.486543 1025.569243 142 106 96
264.433814 18.238889 1001.737266 80 60 58
263.836984 77.426119 995.901590 89 63 62
261.938731 73.993013 999.159999 137 114 116
263.103124 41.021422 1001.700429 115 94 99
263.793738 -55.740542 1014.948924 124 107 109
263.481613 63.461523 1001.406274 76 53 62
265.060351 31.138762 1003.038487 69 51 49
263.728513 -5.220001 1009.605882 135 116 128
264.505348 -5.104236 1009.241755 135 116 128
264.356534 -0.832583 1009.337679 81 60 71
263.204955 26.035016 1008.459381 138 118 121
266.840577 -47.851220 1013.950008 60 42 40
266.124933 -80.909706 1018.961290 76 55 65
265.421269 79.910921 1001.744074 141 123 119
271.162253 -374.631344 1051.760215 166 125 115
268.124269 -105.592591 1026.008713 76 55 65
268.124269 -105.592591 1026.008713 76 55 65
277.860455 -426.008503 1061.814393 164 128 128
322.973311 215.563494 917.362372 79 57 52
275.096056 -129.321220 1032.614497 87 64 70
279.180926 -171.561952 1033.591496 67 53 51
270.807256 -42.834366 1033.288039 74 65 68
283.068476 -177.371670 1040.789883 69 50 50
279.846936 -137.631571 1041.958816 57 42 49
279.846936 -137.631571 1041.958816 57 42 49
270.549409 -81.512522 1054.707039 145 117 122
288.648148 -209.993830 1051.147218 78 58 51
288.209235 -159.951323 1049.554417 126 101 114
351.189441 -88.712154 946.477843 131 106 120
305.562611 -427.535063 1058.977421 208 174 165
267.772871 128.324585 1043.741372 66 49 63
289.252406 -156.532754 1049.184329 126 101 118
272.403149 145.685607 1039.514928 87 71 86
277.939286 170.227875 1028.293344 161 126 120
252.241413 7.293804 1092.260512 146 126 120
270.470539 -52.760754 1072.375726 123 97 111
280.699079 -42.216421 1056.934555 89 78 92
319.392558 -143.313332 1011.056144 80 59 67
265.645371 -17.065417 1085.022963 73 60 69
275.333347 -33.103474 1072.946313 102 85 100
286.105779 -148.638464 1073.887183 72 56 62
265.886261 -7.330565 1093.157693 169 157 154
267.551756 -17.846216 1093.888405 128 106 119
274.240524 -99.462738 1098.670796 89 66 76
263.758821 44.956178 1097.375174 103 84 104
303.294509 -185.444854 1068.606268 130 105 119
273.644179 -88.192918 1105.069955 188 161 157
250.390367 -28.856043 1137.312215 119 96 101
260.188787 5.981536 1121.165222 154 132 127
258.389477 54.755961 1119.296048 128 109 118
277.435031 -102.878636 1111.757110 140 114 127
260.028084 17.722818 1122.547402 155 134 132
258.692545 62.066961 1122.069725 42 20 21
258.261003 52.421157 1124.511887 47 27 25
260.383378 62.102050 1123.067533 58 37 31
262.333681 -62.735883 1138.846968 146 124 127
262.333681 -62.735883 1138.846968 146 124 127
311.751027 -188.967844 1078.143038 127 102 118
254.962892 166.060472 1120.541816 39 25 26
312.358736 -194.338663 1079.661339 126 105 119
295.193248 -139.923453 1106.114581 137 116 123
264.987632 -50.389434 1144.106321 95 79 81
266.275578 -52.493672 1144.190898 68 46 50
315.801350 -193.836983 1082.821931 36 25 29
268.614514 -60.793516 1143.526331 146 123 127
348.360478 217.031772 972.849209 91 61 57
270.923140 -62.311663 1151.097101 148 126 129
270.923140 -62.311663 1151.097101 148 126 129
271.418648 -51.797058 1150.224996 68 46 49
271.801841 -48.047934 1152.705965 47 32 34
279.348646 146.156972 1116.920185 65 48 36
282.694503 -60.471885 1162.159645 134 112 114
286.498796 -13.784308 1148.921781 65 48 35
339.098897 -353.427700 1117.125684 66 43 37
335.035449 -208.238601 1104.153199 37 24 27
333.536480 -203.867485 1106.365400 100 79 82
289.455203 -102.839377 1169.309461 25 19 20
341.143811 -367.064333 1124.302611 194 161 151
343.605751 -237.516053 1104.331388 135 114 113
346.183686 -349.040445 1119.510373 108 81 83
296.604198 -114.479384 1171.495863 106 84 86
302.873792 -135.390212 1168.225011 61 48 56
334.944612 -434.249543 1164.804698 195 161 153
346.554691 -238.537997 1108.175532 141 120 123
348.634755 -239.779219 1112.631415 73 49 41
347.590451 -314.301139 1128.341034 45 27 27
345.143542 -213.278162 1116.107382 32 22 24
344.244199 -208.786121 1118.016159 89 67 76
356.114825 -450.254205 1148.746394 169 135 131
349.225557 -217.305829 1120.068159 71 48 57
355.826177 -400.822864 1144.054549 198 163 159
357.231825 -386.138925 1140.733099 92 63 48
355.216118 -322.650576 1134.885755 172 148 143
353.047185 -278.250082 1130.884112 87 57 55
358.211950 -393.431978 1142.820903 198 164 157
356.905922 -341.088036 1136.194376 151 132 134
353.128678 -272.065486 1130.748132 102 73 69
353.128678 -272.065486 1130.748132 102 73 69
353.555368 -281.907467 1132.068914 185 161 154
354.265893 -266.060437 1129.481026 116 86 78
362.518994 -379.153566 1138.591572 129 105 111
296.157988 49.366994 1181.960139 67 44 32
301.648200 42.714346 1175.015960 255 192 174
363.385185 -390.456816 1144.208113 120 86 69
354.024112 -212.280321 1129.599261 93 70 82
358.301005 -252.333337 1130.581948 154 126 114
364.896516 -434.111500 1156.757345 150 112 114
367.675799 -378.236404 1146.238089 75 53 46
369.745988 -382.010720 1148.958617 74 54 44
369.745988 -382.010720 1148.958617 74 54 44
366.530857 -243.428903 1132.040390 104 76 65
370.609926 -405.708943 1158.309491 192 160 154
368.414670 -362.169918 1153.725822 165 144 143
372.102808 -386.058933 1152.318193 62 43 35
386.716204 222.415669 1009.713912 130 93 83
371.970027 -347.346091 1163.096487 85 70 73
322.435648 -41.039794 1201.056497 44 35 36
321.740872 -36.813110 1202.632560 101 80 83
378.971232 -392.006530 1160.493961 48 32 27
381.401033 208.321802 1038.793469 101 73 67
325.488740 -41.717255 1207.305286 97 80 83
334.948925 -71.673352 1197.921548 76 43 30
375.871900 -224.424259 1146.102413 101 76 88
380.126766 -335.360341 1166.552402 83 63 58
380.126766 -335.360341 1166.552402 83 63 58
386.784693 -395.181669 1169.777921 40 25 19
377.268862 -213.387707 1152.304633 97 74 81
379.151517 -218.031274 1151.876126 38 26 29
379.151517 -218.031274 1151.876126 38 26 29
385.238393 -347.024263 1167.261767 138 118 115
384.288994 -379.846262 1178.499989 130 105 100
385.039249 -289.409921 1157.680951 86 57 58
385.039249 -289.409921 1157.680951 86 57 58
387.038084 -334.567640 1167.976149 165 135 130
390.902765 -394.901633 1173.166071 35 23 19
387.182727 -306.306826 1162.484678 110 78 71
398.982509 218.844687 1026.957873 88 63 56
388.160779 -342.207878 1169.335165 106 87 82
387.914496 -300.661013 1161.598780 122 88 79
389.698812 -358.366955 1172.624706 174 149 144
390.751075 -346.350956 1169.828832 176 156 152
392.061706 -362.939266 1178.684645 157 132 126
389.835661 -283.446204 1169.937285 189 162 154
335.803590 -74.124526 1240.603781 148 106 83
401.094707 225.768943 1038.102080 131 95 87
393.762526 -289.134281 1166.454303 136 110 106
413.032059 228.294947 1012.267369 76 55 49
400.677803 -423.273882 1183.707390 193 155 150
388.242717 -211.857377 1164.688327 92 72 86
397.981370 -414.321009 1191.861124 210 173 167
390.668271 -216.212183 1163.785631 40 27 29
400.160153 -412.144841 1188.016730 210 173 167
402.660016 -399.284372 1182.826967 103 76 66
402.363160 -405.748918 1192.007699 202 172 159
406.461626 -387.156622 1187.964631 37 25 24
409.147738 -394.372619 1189.391423 96 71 64
403.276039 -312.238635 1186.915993 202 174 168
408.509178 -419.911683 1205.641708 167 127 127
374.884077 -140.366594 1216.114256 127 100 97
410.722566 -398.729606 1199.595111 195 162 156
406.090445 -342.890118 1201.060017 73 52 51
415.358450 -388.261446 1192.856699 98 71 63
406.923148 -242.793427 1177.231222 103 72 63
409.332290 -263.684732 1184.554737 179 155 148
409.775642 -301.028004 1195.189284 117 87 77
410.104453 -249.773323 1183.914364 113 90 82
411.031188 -256.122257 1184.359349 181 152 143
411.153152 -266.926293 1192.592377 151 126 119
420.262958 -434.082436 1213.430882 209 174 167
412.687328 -269.903973 1190.899750 101 74 70
363.678955 -34.706126 1247.453691 40 26 28
419.861622 -334.266740 1202.255794 32 23 20
413.083906 -207.855331 1187.126415 39 27 32
416.633214 -246.875091 1191.091447 155 131 118
363.531435 161.497833 1215.285482 51 35 24
417.893324 -240.910967 1192.299560 172 144 135
417.893324 -240.910967 1192.299560 172 144 135
422.169471 -324.988888 1203.814593 95 68 65
419.060241 -267.379829 1199.729533 103 71 70
372.442601 160.752898 1201.940888 51 35 24
419.179576 -305.150729 1210.963928 46 30 28
425.035063 -325.699396 1204.926216 135 115 108
427.357242 -362.705809 1209.659183 168 137 131
427.785195 -362.385910 1209.126317 168 137 131
423.880442 -244.822530 1201.737942 64 44 45
421.110327 -197.473270 1196.907998 98 76 82
423.786408 -201.479011 1197.659591 36 24 28
441.945034 -451.329738 1227.877893 121 96 83
400.999435 -106.887889 1240.125871 122 93 92
411.737155 -137.024068 1227.162110 83 65 71
411.737155 -137.024068 1227.162110 83 65 71
440.239386 -320.608924 1214.791758 88 62 54
448.511464 -168.560293 1163.881425 105 81 88
407.691039 -92.235687 1244.535797 114 87 90
407.691039 -92.235687 1244.535797 114 87 90
433.701251 -183.583519 1213.025755 36 28 31
437.312674 -198.198928 1209.555739 115 92 97
442.078355 -201.812079 1214.605287 132 104 105
443.969342 -197.616057 1212.747832 124 96 101
404.450160 99.519308 1232.713635 73 53 57
405.024023 120.391497 1231.855738 58 41 49
463.280535 -427.372280 1257.778063 203 168 162
464.882160 -468.827376 1267.437488 223 186 172
451.266559 -176.898602 1217.980741 101 78 87
458.392085 -323.755542 1244.557962 196 163 154
468.714979 -446.927545 1255.034164 123 101 87
412.480018 137.185356 1230.517163 138 110 103
429.943002 -15.108619 1240.931654 23 20 22
461.731357 227.134527 1089.558078 86 60 53
479.369265 -445.472463 1265.772535 112 92 79
440.306438 -9.054398 1240.382248 108 83 86
460.750332 -152.096061 1236.960197 48 35 38
439.189201 14.540273 1246.658489 143 115 105
467.632506 -169.468298 1235.857781 118 101 105
466.468137 -154.584782 1235.646014 109 85 94
466.656031 -145.890505 1238.935001 91 68 73
470.417635 -200.717814 1247.988487 100 72 62
436.961420 139.009440 1231.351392 129 103 97
431.114676 51.867693 1285.537221 68 46 49
480.521051 -285.803742 1263.818163 170 135 131
444.330838 147.496411 1229.988023 31 23 31
450.555509 68.859328 1239.735156 71 52 57
493.898995 -132.438074 1188.574536 91 68 73
459.930488 68.760613 1223.374384 71 52 57
459.930488 68.760613 1223.374384 71 52 57
469.878925 -110.449945 1248.777008 127 105 104
476.805754 -135.198294 1246.412475 38 24 28
476.805754 -135.198294 1246.412475 38 24 28
463.346579 14.433506 1247.421138 152 120 107
504.292411 -441.350299 1291.436383 121 94 80
476.263008 -85.692016 1252.595856 134 110 109
482.761155 -120.607746 1251.562349 38 25 28
460.917800 130.498921 1233.319780 141 113 102
468.357895 11.509186 1254.292316 28 17 19
485.962509 -141.022945 1253.370546 127 98 97
479.506038 -71.896939 1253.916182 106 82 91
461.855749 141.982261 1231.061291 125 98 92
473.737472 -3.436935 1248.830844 43 30 32
511.237728 -440.667617 1299.046200 126 98 86
473.771005 -95.782446 1293.547145 36 23 25
488.068794 -104.696626 1254.449662 38 26 28
496.366591 -213.383061 1273.435343 152 117 111
467.968206 124.979498 1236.839632 47 31 29
511.283847 -440.964707 1300.850925 121 97 82
468.782545 125.008001 1235.324024 47 31 29
481.754766 -7.886623 1249.702106 110 87 91
498.186327 -168.306330 1265.154107 183 148 137
491.851932 -88.633363 1257.843411 36 23 25
492.987365 -79.817964 1255.966594 109 85 93
508.169525 -82.578849 1225.533373 36 23 25
494.814327 -72.096022 1259.573100 37 25 27
500.969704 -148.552687 1273.401802 83 61 51
495.810462 -64.500804 1256.202748 107 85 99
495.357171 -55.956811 1258.807622 36 26 32
497.577773 -39.145300 1257.920541 38 29 34
528.281699 -437.757152 1316.015966 112 101 87
498.701390 -51.277635 1258.930201 107 85 97
484.458667 170.285623 1220.334848 47 37 46
530.665137 -414.794062 1320.157919 206 171 160
492.534529 84.496462 1239.407906 42 31 34
495.114191 81.898080 1240.795431 111 92 103
499.817110 70.150881 1244.218332 38 28 30
535.301549 -436.951667 1324.194212 106 87 71
492.628908 185.147430 1216.109632 66 52 50
506.403584 223.922528 1164.325661 101 73 67
498.299419 180.656333 1211.743809 125 104 107
498.927195 107.012720 1243.654881 123 100 99
499.481881 106.724933 1242.601051 123 100 99
538.058163 -454.387473 1341.753737 175 143 132
504.983218 66.833030 1253.967822 99 82 98
518.740708 -99.259287 1278.148021 86 63 52
518.288725 -59.552748 1273.932848 88 69 65
520.955378 -101.624400 1284.952963 189 158 143
520.266565 -83.091623 1282.391947 90 67 57
513.714574 16.999161 1266.421046 197 165 150
512.351983 77.004741 1255.410993 41 32 34
524.348525 -76.721993 1286.481849 163 134 116
526.033694 -98.572187 1292.283414 189 157 144
511.147127 219.493949 1206.431195 155 117 109
525.154285 -52.894048 1281.638058 78 58 51
526.042618 -66.698828 1286.865602 170 137 124
518.067057 49.640340 1263.461643 99 76 80
519.855993 29.817961 1266.559417 198 164 150
513.926845 119.996688 1248.911916 255 226 214
558.358658 -432.518144 1345.141921 122 98 78
518.147012 90.805553 1257.260035 192 159 146
533.924442 236.274498 1164.386047 102 74 67
563.417016 -340.609899 1355.203819 173 134 123
573.562061 -444.842692 1377.746269 118 84 66
579.661346 -449.155069 1381.501373 188 153 140
574.305978 -355.045706 1366.123667 182 148 141
534.425638 184.978206 1265.526450 154 125 121
587.331739 -443.963977 1392.100442 110 81 65
592.529082 -410.508456 1396.588848 205 171 158
593.333146 -446.456304 1398.784696 162 133 126
593.257879 -401.932032 1393.362217 211 176 167
550.439880 181.874622 1256.237663 173 142 144
598.518851 -444.289787 1403.637283 104 75 60
553.992484 190.568767 1261.374956 125 95 80
605.649930 -452.399426 1412.250810 173 140 126
598.562007 -356.856469 1391.257258 129 103 117
607.507928 -443.353444 1412.599408 107 75 60
581.731759 -141.177479 1356.379661 163 132 127
581.731759 -141.177479 1356.379661 163 132 127
609.625078 -425.263356 1400.488264 114 90 71
554.224713 186.556917 1288.785856 184 150 142
601.367401 -347.273199 1394.547677 130 104 118
605.030182 -366.238077 1400.707067 191 160 148
583.963807 -125.397960 1352.487951 142 112 106
601.136081 -320.623207 1392.104435 205 171 159
601.136081 -320.623207 1392.104435 205 171 159
557.449508 190.181922 1290.906625 98 76 73
556.212105 227.705046 1276.476184 122 99 90
603.864265 -326.798275 1396.097138 218 180 166
591.916876 -130.235411 1354.740609 157 129 120
624.658590 -439.301601 1428.185517 73 47 40
593.892442 -93.283514 1359.325215 142 108 113
610.618678 -250.371736 1394.806066 113 87 96
610.618678 -250.371736 1394.806066 113 87 96
573.348050 161.022283 1310.231644 117 94 108
621.251820 -367.244359 1435.479006 139 114 124
622.699184 -365.065964 1430.323424 139 114 124
628.886700 -399.238596 1428.632155 57 39 50
632.624363 -390.034736 1440.298150 66 43 49
579.217534 220.047617 1300.083056 55 37 29
595.067245 58.265253 1344.832145 109 79 86
641.587585 -419.693679 1432.459494 116 95 97
639.786456 -405.896782 1436.807041 110 85 101
599.760275 13.033911 1354.462281 67 51 48
